0.161566,0.161515,0.161357,0.161009,0.161025,0.16109,0.160977,0.160767,0.160264,0.160316,0.160446,0.160556,0.160105,0.156741,0.149257,0.143764,0.125552,0.115164,0.0995556,0.0800861,0.0638283,0.0450074,0.0284946,0.0163416,0.00634751,0.0199186,0.00127025,0.0036764,0.00104477,0.00118483,0.00108455,0.00110796,0.00120975,0.00284889,0.00123009,0.00149348,0.00118919,0.0015569,0.000962246,0.00218671,0.00181129,0.00100177,0.000924554,0.00113502,0.00100318,0.00126222,0.00141843,0.000991326,0.00124928,0.00572162,0.00115728,0.00195434,0.00274294,0.00383705,0.00103955,0.0011167,0.000905435,0.00176743,0.000983369,0.000834988,0.00129067,0.00070896,0.000613386,0.00308288,0.000749697,0.00102954,0.00076416,0.000886046,0.00035966,0.000424035,0.000591158,0.000441822,0.000428677,0.00040462,0,0.000436194,0.000509736,0,2.06946e-13,0,2.06946e-13,2.06946e-13,0,0,2.06946e-13,0.000682352,0.000606042,0.000387402,2.06946e-13,0,0.0011817,2.06946e-13,0.00995904,0.000896097,0.000858688,0,2.06946e-13,0.000963811,0.000348674,2.06946e-13,2.06946e-13,0,0,0,2.06946e-13,0,0,2.06946e-13,0,0,2.06946e-13,2.06946e-13,2.06946e-13,2.06946e-13,0,0,0.000472199,0.000383719,0.00143479,0.00100858,0.00170415,0.00519395,0.00154535,0.000699781,0.0006537,0.00135566,0.000410844,0.000859391,0.00463574,0.0120973,0.0252827,0.116469,0.0604535,0.0848914,0.104011,0.122336,0.129919,0.139508,0.154933,0.161156,0.159323,0.162422,0.160563,0.160912,0.161124,0.161162,0.160919,0.161391,0.161317,0.161907,0.162086,0.162215,0.162409,0.162454,0.162683
0.161841,0.161911,0.161727,0.161505,0.161045,0.161167,0.16127,0.161019,0.160599,0.160744,0.159794,0.160518,0.160596,0.157666,0.154285,0.146124,0.135694,0.123548,0.103388,0.0868118,0.0684755,0.0497149,0.0336063,0.0174964,0.00713255,0.00217737,0.00135158,0.000865509,0.00204252,0.010604,0.00572394,0.00168119,0.00155047,0.00172601,0.00990051,0.00133781,0.00834994,0.00158875,0.00451146,0.00103736,0.00371983,0.000997186,0.00324346,0.00179089,0.00197408,0.000847547,0.00123541,0.00175416,0.00128946,0.00346278,0.0025918,0.000975699,0.00128331,0.00131357,0.00366946,0.00274255,0.00204516,0.000892009,0.000729197,0.00142422,0.0021508,0.000698632,0.0006687,0.000614241,0.000680136,0.00145713,0.000431341,0.000521341,0.00297388,0.000701171,0.00070718,0.000695869,0.00036321,0.0237011,0,2.06946e-13,0,2.06946e-13,2.06946e-13,2.06946e-13,2.06946e-13,2.06946e-13,2.06946e-13,2.06946e-13,0,0.000640647,0,0.000449681,2.06946e-13,0.000352032,0.00168856,0,0.00041214,0.000511498,0.0290673,2.06946e-13,0.000856155,2.06946e-13,2.06946e-13,2.06946e-13,2.06946e-13,0,0,2.06946e-13,0,0,0,2.06946e-13,2.06946e-13,0,2.06946e-13,2.06946e-13,2.06946e-13,0,0,0,0,0.000665886,0.000672356,0.00126475,0.00109309,0.00084768,0.00252014,0.00127182,0.000694917,0.00142967,0.00220551,0.000523819,0.00250923,0.0141372,0.0286672,0.0504756,0.0698063,0.0917144,0.106721,0.129599,0.142486,0.152801,0.16006,0.162275,0.161167,0.1614,0.160793,0.161903,0.161197,0.161348,0.161598,0.161711,0.161881,0.161661,0.161971,0.162374,0.162675,0.162656,0.162758
0.162062,0.161914,0.161665,0.161571,0.161539,0.161245,0.161155,0.160973,0.161063,0.16076,0.160728,0.160679,0.161651,0.160468,0.139301,0.150902,0.139785,0.130198,0.110485,0.0744164,0.0761584,0.0560251,0.0367025,0.0169727,0.00218052,0.00233856,0.00151449,0.000978977,0.00111416,0.00637781,0.0140042,0.00123485,0.00124148,0.00144221,0.00209933,0.0010422,0.00237229,0.00120648,0.00105432,0.00623878,0.00118445,0.00273367,0.00133136,0.00137654,0.0747548,0.00136647,0.0179802,0.00107594,0.00096273,0.0011037,0.00129309,0.0012805,0.00152128,0.000794398,0.0015755,0.00191943,0.00346272,0.000862266,0.000856793,0.000812388,0.000677224,0.000705659,0.0756529,0.000761384,0.000550974,0.000609155,0.000650668,0.000590457,0.000562095,0.000684758,2.06946e-13,0.000443424,2.06946e-13,0.00588121,2.06946e-13,0.000451017,2.06946e-13,0,2.06946e-13,2.06946e-13,0.000725822,2.06946e-13,2.06946e-13,0,0,0.000766249,0,0.000462409,0,0.00114864,0,2.06946e-13,0.000407322,0,0.0194955,0,0.00036322,0.000660292,2.06946e-13,2.06946e-13,2.06946e-13,0,2.06946e-13,0,2.06946e-13,2.06946e-13,2.06946e-13,2.06946e-13,2.06946e-13,0,2.06946e-13,0,0,0,0,0,0,0,0.000773909,0.000855205,0.000604899,0.07346,0.0288925,0.000767862,0.00154941,0.000889794,0.000534621,0.00101488,0.00983802,0.015465,0.0383941,0.0565871,0.0741547,0.0952655,0.122193,0.124156,0.145893,0.157969,0.161444,0.161818,0.161228,0.161414,0.161618,0.161674,0.161355,0.160449,0.173549,0.161482,0.162346,0.162179,0.161908,0.162596,0.162645,0.162699,0.162938
0.162557,0.162079,0.16302,0.161788,0.161292,0.161513,0.161313,0.161114,0.161094,0.160922,0.16125,0.160813,0.16108,0.161016,0.160996,0.15571,0.146636,0.140409,0.107561,0.100511,0.0761379,0.0517776,0.0407798,0.0235441,0.00487626,0.00265811,0.00087829,0.00196311,0.0032249,0.00234523,0.00236924,0.00120757,0.00355082,0.00109373,0.00156967,0.00178511,0.00105558,0.00208134,0.0171368,0.0300369,0.00163754,0.000874285,0.00119445,0.00131173,0.00204958,0.00139998,0.00154546,0.000806415,0.00119553,0.00221168,0.00162146,0.00117265,0.00173912,0.0013159,0.000770797,0.00104849,0.000758842,0.00112674,0.000802414,0.000969606,0.00231607,0.000747506,0.00189879,0.0007322,0.00895086,0.000596204,0.000401014,0.00189098,0.000572224,0.00056805,2.06946e-13,0.000426935,0.00046908,2.06946e-13,0.000460838,0,2.06946e-13,0,0.000369746,0,2.06946e-13,0,2.06946e-13,2.06946e-13,2.06946e-13,0.000474593,0,2.06946e-13,2.06946e-13,0,2.06946e-13,0.000490192,2.06946e-13,0.000475971,0.000456676,0,0.000380013,0.00232867,2.06946e-13,0.00042614,2.06946e-13,2.06946e-13,2.06946e-13,0,0,2.06946e-13,2.06946e-13,0,0,2.06946e-13,2.06946e-13,2.06946e-13,0,2.06946e-13,0,0,0.000410819,0.00130713,0.000935737,0.000688371,0.00125456,0.00400582,0.00530147,0.000689058,0.000809943,0.000794113,0.0229966,0.000674453,0.00559525,0.0165547,0.0358649,0.0583592,0.0795037,0.0974206,0.122395,0.141373,0.152597,0.159298,0.160875,0.160976,0.160809,0.162208,0.161705,0.162215,0.161962,0.161563,0.161858,0.161805,0.162387,0.162438,0.162385,0.162693,0.162965,0.163386,0.16311
0.162623,0.162199,0.162085,0.161845,0.161935,0.161779,0.16144,0.16122,0.161336,0.161161,0.160762,0.161935,0.160838,0.160656,0.160595,0.159878,0.152101,0.142816,0.126542,0.106619,0.089096,0.0635334,0.0415543,0.0248613,0.0106901,0.00222063,0.00113815,0.00101454,0.00131449,0.00175294,0.00118886,0.00124351,0.00109481,0.00723117,0.00144151,0.00112751,0.00216305,0.00454802,0.00122965,0.000971855,0.00110306,0.00101111,0.00104785,0.00103301,0.00159064,0.00114147,0.00424619,0.00133225,0.00149796,0.0017736,0.00168932,0.0208681,0.000931018,0.00108689,0.000945419,0.00100402,0.000806634,0.00119877,0.000877731,0.00101868,0.000682514,0.00342745,0.000941918,0.000475272,0.00080333,0.000894023,0.000559503,0.000435084,0.000597356,0.00055089,0.000450365,0.00137961,0.000388276,0.000393572,0.00137823,0.000434946,0,0.000485527,0,0,2.06946e-13,0,0,2.06946e-13,2.06946e-13,0.000882974,0,0.000346689,0.000554195,2.06946e-13,0,0.00351473,0.00102423,0.000402888,2.06946e-13,0,0,0.000351012,2.06946e-13,2.06946e-13,2.06946e-13,2.06946e-13,2.06946e-13,2.06946e-13,2.06946e-13,0,2.06946e-13,0,2.06946e-13,2.06946e-13,0,0,0,0,0,0.000565944,0.000720146,0.000506472,0.000989197,0.000769225,0.000641617,0.00222428,0.00175205,0.00381192,0.0008928,0.000485456,0.00130199,0.000441529,0.0017473,0.0191498,0.0389911,0.0609813,0.0867537,0.117897,0.119056,0.145769,0.157428,0.160448,0.161576,0.161444,0.162188,0.162405,0.161615,0.16251,0.161911,0.163107,0.163356,0.162257,0.162804,0.163874,0.162746,0.163594,0.1632,0.163033,0.16321
0.162434,0.162364,0.162395,0.161738,0.161842,0.161702,0.160844,0.161506,0.161479,0.162171,0.161247,0.161422,0.162221,0.160661,0.161757,0.16061,0.153594,0.146502,0.131735,0.115747,0.116583,0.0710101,0.0482725,0.0369811,0.0149017,0.00445256,0.00125049,0.000756913,0.00108737,0.00142386,0.00100097,0.00163011,0.00130748,0.00188996,0.00183923,0.00138897,0.00161274,0.00188321,0.00830377,0.063465,0.00086475,0.00103617,0.00119061,0.00132238,0.00682796,0.0015143,0.00264778,0.000971003,0.00197957,0.00367878,0.00348372,0.000780641,0.00119692,0.00103328,0.000814154,0.00122521,0.00250869,0.000957251,0.000818978,0.000959376,0.000717708,0.000768648,0.00092556,0.000489349,0.000926657,0.000465606,0.0897615,0.000524742,0.000476028,0.00232073,0.00140136,0.000360551,0.000371441,0.00144379,0.000551463,0.000366028,2.06946e-13,2.06946e-13,0,0,2.06946e-13,2.06946e-13,0,2.06946e-13,0,0.00072769,2.06946e-13,2.06946e-13,0.000423795,2.06946e-13,0,0.000447272,0.000473214,0.00921208,0.0136973,0,0.000711568,0.000371824,2.06946e-13,0.000777546,2.06946e-13,2.06946e-13,0,0,0,0,2.06946e-13,2.06946e-13,2.06946e-13,2.06946e-13,0,0,0,2.06946e-13,0,0,0.000456843,0.00233864,0.000783816,0.000760132,0.00079903,0.00111757,0.00166613,0.000791511,0.000618127,0.0122223,0.000429955,0.000450917,0.00788409,0.0136629,0.0439589,0.068443,0.092186,0.118448,0.132311,0.150634,0.156834,0.16017,0.161187,0.159603,0.162748,0.162036,0.162258,0.161809,0.162782,0.162905,0.163325,0.163546,0.164634,0.16292,0.162821,0.166826,0.164192,0.16328,0.163856
0.162441,0.162536,0.162442,0.162331,0.162172,0.16188,0.161682,0.161869,0.161825,0.162278,0.163254,0.1645,0.16166,0.160896,0.161577,0.160584,0.159721,0.153489,0.140042,0.122574,0.100058,0.07214,0.0563668,0.0319692,0.0043536,0.00506248,0.000896206,0.00270827,0.00282516,0.00105683,0.00125735,0.0016756,0.00213496,0.024577,0.00413947,0.0030062,0.000990667,0.00235484,0.00204126,0.00107395,0.00126336,0.0011731,0.000963488,0.00133127,0.000988577,0.00162947,0.000851336,0.00153913,0.00567574,0.0164575,0.00108972,0.00159987,0.00130262,0.00502217,0.000928217,0.0387909,0.000844787,0.000783172,0.0108298,0.0012364,0.000562102,0.000989503,0.000666593,0.000659809,0.000465243,0.000638484,0.000839742,0.000532393,0.00038525,0.000349427,0.00412746,0.00079628,0.000363558,0,0.000386956,2.06946e-13,2.06946e-13,2.06946e-13,0,0,2.06946e-13,0.00184596,2.06946e-13,2.06946e-13,2.06946e-13,0.000385216,0,0,0,0,0,0.000411363,2.06946e-13,0.000487284,0.000359268,0,0.00173164,0,2.06946e-13,2.06946e-13,2.06946e-13,2.06946e-13,2.06946e-13,2.06946e-13,2.06946e-13,0,0,0,0,0,0,0,0,2.06946e-13,0,0,0,0,0.000929234,0.000701207,0.000808337,0.00361438,0.00349298,0.00187946,0.000936099,0.00164733,0.00103262,0.000465892,0.0031823,0.0205923,0.0449376,0.0773625,0.0975419,0.126771,0.145584,0.156354,0.160344,0.161373,0.161117,0.16103,0.162037,0.161427,0.16206,0.16192,0.162669,0.162655,0.163241,0.163856,0.163665,0.163106,0.163143,0.163254,0.163223,0.163384,0.163567
0.162772,0.162734,0.162641,0.16234,0.162115,0.162203,0.162081,0.161894,0.160447,0.162231,0.161328,0.161234,0.161808,0.161182,0.161054,0.162139,0.162051,0.152019,0.147849,0.131642,0.11135,0.0884877,0.0616617,0.040456,0.0177539,0.00111,0.00696649,0.00258216,0.000700624,0.0017255,0.00144496,0.00233158,0.00130298,0.00142796,0.00158378,0.000911601,0.00118743,0.00110096,0.000907454,0.00142521,0.000979986,0.00197947,0.00370727,0.00103175,0.00185053,0.00481042,0.00126911,0.0016862,0.00273732,0.000942578,0.0205014,0.00103374,0.00148652,0.00101932,0.0007719,0.000774786,0.000739942,0.000941571,0.0622614,0.0170767,0.00293234,0.00301206,0.000461908,0.000588492,0.000522614,0.00107441,0.000432836,0.000602173,0.00106776,0.000428064,0.00457753,0.000601492,0.000463031,0.00248234,0.000440208,0.000347277,2.06946e-13,2.06946e-13,0.00054914,0,2.06946e-13,2.06946e-13,2.06946e-13,2.06946e-13,2.06946e-13,0.000663586,0,2.06946e-13,0,0.0005442,0,0,0.000367545,0.000479223,0.000355753,0,0.000527444,0.0013833,2.06946e-13,2.06946e-13,2.06946e-13,2.06946e-13,0,2.06946e-13,0,0,0,0,0,0,0,0,2.06946e-13,0,0,0.000544734,0,0.00928966,0.00136795,0.00884437,0.00144969,0.001189,0.00389354,0.00727628,0.0010395,0.000386323,0.000911586,0.00158318,0.181652,0.0243674,0.0531838,0.0773901,0.111725,0.132021,0.149777,0.159925,0.161617,0.161719,0.163432,0.160862,0.16224,0.163562,0.1624,0.162291,0.163187,0.163287,0.163737,0.163158,0.163942,0.163476,0.163257,0.163122,0.163197,0.163488,0.16331
0.16313,0.162758,0.16281,0.162511,0.162479,0.162865,0.163145,0.162972,0.162734,0.162983,0.162496,0.162356,0.160256,0.161792,0.160926,0.161916,0.161939,0.161968,0.152438,0.138771,0.131503,0.0909809,0.0712817,0.0404682,0.00499976,0.00274848,0.000897733,0.00408267,0.00155081,0.00320542,0.00162817,0.001975,0.00565247,0.00654333,0.00125474,0.00458201,0.00339913,0.00123799,0.0011889,0.00109812,0.00131032,0.00118003,0.0121875,0.00106146,0.00127561,0.00193359,0.00187556,0.0046859,0.000855573,0.00110664,0.00114925,0.00176576,0.0102108,0.000836555,0.00140399,0.000914568,0.000869119,0.00442526,0.00143084,0.00066931,0.000869962,0.000689663,0.000695395,0.000502393,0.00060687,0.000887228,0.000506251,0.000477638,0.000545413,0.000465604,0.00534575,0.000886031,0.000618298,0.000424661,0.0006058,0.000373491,0.000512659,2.06946e-13,0.00071869,2.06946e-13,0,2.06946e-13,0,0,0,0,0.000554105,0,0,0.000637741,2.06946e-13,2.06946e-13,0,0,0.0102773,0,0.00411401,2.06946e-13,2.06946e-13,2.06946e-13,2.06946e-13,2.06946e-13,2.06946e-13,2.06946e-13,0,2.06946e-13,2.06946e-13,0,2.06946e-13,2.06946e-13,2.06946e-13,2.06946e-13,2.06946e-13,0,0,0,0,0.000624193,0.000620738,0.000725268,0.000734892,0.000709295,0.00150522,0.000825343,0.00184898,0.000915428,0.000750806,0.00066324,0.00787823,0.0211576,0.055456,0.0879598,0.120591,0.142014,0.15829,0.161969,0.161704,0.164791,0.161592,0.161918,0.162407,0.163257,0.163029,0.1639,0.163753,0.156497,0.164159,0.163209,0.164,0.164633,0.16342,0.163557,0.163466,0.163622,0.163886
0.162962,0.162778,0.162999,0.163327,0.163178,0.163169,0.163225,0.163636,0.163207,0.16284,0.163029,0.163492,0.161524,0.161582,0.162003,0.164038,0.160142,0.162929,0.159668,0.1457,0.13105,0.100152,0.0706201,0.0534456,0.024871,0.00650715,0.00199258,0.000832941,0.00440801,0.00147735,0.0011041,0.00440053,0.00105752,0.0508942,0.00344013,0.00240505,0.0020312,0.00127565,0.000935854,0.00117876,0.001563,0.00127486,0.00116702,0.0042583,0.00102646,0.00169733,0.00375589,0.00121365,0.00217405,0.00205815,0.00200592,0.00199701,0.00124413,0.00239055,0.00140019,0.000888137,0.000815673,0.000788243,1.23077,0.00107229,0.00075457,0.00122768,0.0016856,0.00075022,0.00164879,0.000453612,0.00045479,0.00136986,0.00114196,0.000966212,0.0356403,2.06946e-13,0.000473455,0.000368615,2.06946e-13,0.000395409,0.00046162,2.06946e-13,0,2.06946e-13,2.06946e-13,0,2.06946e-13,0,2.06946e-13,0.000354581,2.06946e-13,2.06946e-13,0,0,2.06946e-13,0.000938482,0.000454739,2.06946e-13,2.06946e-13,0,0.00136875,0,2.06946e-13,2.06946e-13,2.06946e-13,2.06946e-13,2.06946e-13,2.06946e-13,0,2.06946e-13,0,2.06946e-13,2.06946e-13,0,0,2.06946e-13,2.06946e-13,0,0,0,0,0.00038584,0.000650281,0.0121922,0.00142402,0.000791788,0.00147322,0.000854653,0.000884933,0.00119233,0.000804782,0.00106011,0.00765391,0.0344576,0.064314,0.096237,0.130077,0.151031,0.15762,0.162358,0.162068,0.163404,0.161289,0.161848,0.165503,0.160518,0.163745,0.162837,0.164232,0.163872,0.16226,0.163669,0.163949,0.163455,0.164151,0.163637,0.163598,0.163387,0.163604
0.162226,0.163075,0.163072,0.162658,0.163065,0.16338,0.163691,0.163346,0.163868,0.163764,0.163477,0.16192,0.162692,0.162721,0.162044,0.162576,0.165384,0.160891,0.161456,0.152604,0.293283,0.11545,0.0895695,0.0563044,0.026822,0.00166283,0.00114579,0.00140328,0.00390568,0.00291856,0.00121363,0.00151489,0.00620332,0.0133126,0.00240322,0.00201798,0.00121237,0.00158957,0.00111376,0.00121366,0.00106985,0.00270216,0.00109693,0.00122227,0.00105221,0.00128098,0.00105818,0.00261358,0.0013099,0.0012347,0.00235568,0.00256174,0.00204029,0.0011538,0.0140034,0.00162493,0.000848506,0.00071753,0.00166481,0.000643589,0.000476819,0.00063127,0.000794481,0.00122333,0.000438954,0.00070908,0.000622772,0.00104131,0.00101377,0.000357448,0.120706,0.000350254,0.000584797,0,0.00035831,2.06946e-13,2.06946e-13,2.06946e-13,0,0.00107281,0.000366084,2.06946e-13,2.06946e-13,2.06946e-13,0,2.06946e-13,0,0.000509652,0,0.000511547,0.0317808,0.000448249,0.000452907,0,2.06946e-13,0,0.000371784,0.000765829,0.000941581,2.06946e-13,2.06946e-13,2.06946e-13,2.06946e-13,2.06946e-13,2.06946e-13,0,2.06946e-13,0,0,2.06946e-13,2.06946e-13,0,2.06946e-13,0,0,0,0.000641191,0.00241839,0.000715262,0.0014861,0.00083258,0.00188271,0.0820785,0.0010046,0.000678932,0.00166418,0.00127502,0.00156708,0.0100453,0.0322334,0.0669519,0.104233,0.133976,0.155941,0.161059,0.160568,0.16215,0.157737,0.161442,0.163313,0.164582,0.162642,0.16286,0.16337,0.163619,0.163268,0.163896,0.164098,0.163626,0.163988,0.164539,0.162381,0.163178,0.163571,0.163635
0.163223,0.16309,0.163101,0.163143,0.163378,0.164065,0.163733,0.162634,0.163383,0.163938,0.162404,0.163742,0.163035,0.162263,0.162095,0.164892,0.162362,0.155971,0.161326,0.159851,0.148389,0.110766,0.0930918,0.0638739,0.0321825,0.00924829,0.000887024,0.000553133,0.00113758,0.00412051,0.00193934,0.00210497,0.00140675,0.00353893,0.00114976,0.00148997,0.00180851,0.00152222,0.00110372,0.00244296,0.00117957,0.0117634,0.00132565,0.00176397,0.00313875,0.00514695,0.00101892,0.00365961,0.00134488,0.00127817,0.00135092,0.00116607,0.000844555,0.0012642,0.00129642,0.000853543,0.0314943,0.000756467,0.00100125,0.0010341,0.00256558,0.000714257,0.0968019,0.000647655,0.0015864,0.000428401,0.00107727,0.000467706,0.000443073,0.00058511,0.0344498,0.000435226,0.000447625,0.000734074,2.06946e-13,0.000660043,2.06946e-13,0,0,0,0,2.06946e-13,0,0,0,0,0,0.000865506,0,0,0.0003536,0.000350384,0,0.000541777,0.000455965,0,0.000390272,2.06946e-13,0.000394138,2.06946e-13,2.06946e-13,2.06946e-13,2.06946e-13,2.06946e-13,2.06946e-13,2.06946e-13,0,2.06946e-13,0,0,2.06946e-13,0,2.06946e-13,0,0,0,0,0.000430798,0.00177552,0.000606196,0.000687117,0.00546773,0.00295552,0.000903187,0.000678822,0.000600895,0.000533757,0.000431688,0.00501429,0.0406995,0.0788274,0.122721,0.147237,0.162285,0.161169,0.161706,0.16064,0.151355,0.162679,0.164153,0.162464,0.163164,0.163096,0.163174,0.163332,0.164058,0.164335,0.163983,0.163913,0.162659,0.163429,0.164342,0.163509,0.163645,0.16342
0.162775,0.163103,0.163217,0.163142,0.163674,0.163981,0.164214,0.16405,0.162721,0.163585,0.162547,0.1639,0.163013,0.162987,0.161604,0.163601,0.161662,0.162296,0.165305,0.162313,0.156824,0.141295,0.11096,0.0771361,0.0478769,0.0111175,0.00591319,0.00161869,0.00205623,0.000961411,0.00228791,0.00152215,0.00107614,0.00141375,0.00191819,0.00126295,0.00104545,0.00119235,0.0738123,0.00100923,0.000929979,0.00135651,0.00143914,0.00139323,0.090312,0.000931184,0.000933495,0.00154448,0.00101383,0.0171497,0.00893053,0.00139841,0.0010801,0.00238572,0.000949963,0.00152859,0.000777298,0.00299671,0.00110976,0.000801679,0.000779428,0.00105558,0.00173498,0.000564757,0.0130124,0.000682218,0.000434016,0.000583313,0.00050626,0.000374882,0.00152939,0.00349522,0.00175332,2.06946e-13,0.000483813,0.000805923,0,0.000367159,2.06946e-13,2.06946e-13,0,0,2.06946e-13,0,0,0.00038562,0,0.000460788,0,0.00730509,0.000939472,2.06946e-13,0.000364195,0,0.000574175,0,0.000532084,0.00038556,2.06946e-13,2.06946e-13,2.06946e-13,2.06946e-13,2.06946e-13,2.06946e-13,2.06946e-13,2.06946e-13,0,0,0,2.06946e-13,2.06946e-13,2.06946e-13,2.06946e-13,0,0,0,0,0.000362935,0.0034,0.00119222,0.000697802,0.00423914,0.00164092,0.00166918,0.00135025,0.000659893,0.000789656,0.00109619,0.01223,0.0459489,0.0870385,0.126918,0.15343,0.158902,0.161009,0.159277,0.16274,0.161469,0.164198,0.162446,0.165105,0.163665,0.164573,0.163677,0.163505,0.164203,0.165326,0.163527,0.164408,0.164523,0.165168,0.165862,0.163288,0.163273,0.163585
0.162932,0.163249,0.163921,0.163921,0.16267,0.164481,0.167992,0.164074,0.16603,0.162968,0.163023,0.163819,0.16782,0.16348,0.163505,0.161832,0.161272,0.161875,0.168699,0.160605,0.162806,0.150959,0.131815,0.0870574,0.0564562,0.0193274,0.000635397,0.000477245,0.0026167,0.00112401,0.00242855,0.00533638,0.0104904,0.00172605,0.00109483,0.00125165,0.00239292,0.00128815,0.00423725,0.00146423,0.00104858,0.00092367,0.00105947,0.00169005,0.000996523,0.00132515,0.00116649,0.00971351,0.000955261,0.00194229,0.00105829,0.0026122,0.000781713,0.0013633,0.000787558,0.001339,0.00260484,0.000722055,0.0012954,0.00127553,0.000683,0.0027755,0.000984357,0.00057259,0.000538677,0.000759781,0.000558223,0.000607525,0.00131937,0.000480896,0.00730788,0.00044565,0.000424939,0.00446827,0.00116036,0.000464517,2.06946e-13,0.000370123,2.06946e-13,2.06946e-13,0,0.000502289,2.06946e-13,0,0,2.06946e-13,0,0.000381472,2.06946e-13,2.06946e-13,0.000500125,2.06946e-13,0.000560161,0.00041128,0.00236387,0,0.000740401,2.06946e-13,0.000640893,2.06946e-13,2.06946e-13,2.06946e-13,2.06946e-13,2.06946e-13,0,2.06946e-13,0,2.06946e-13,2.06946e-13,0,0,0,0,0,0,0,0,0.000405818,0.00109046,0.000664876,0.00146238,0.000991696,0.00239654,0.00276809,0.000736586,0.0127654,0.0030408,0.000875076,0.012185,0.0522981,0.102589,0.138986,0.161426,0.160281,0.161957,0.160978,0.16011,0.162277,0.163023,0.159661,0.163448,0.163925,0.164283,0.164918,0.163907,0.164441,0.163826,0.166368,0.1642,0.164509,0.163843,0.164038,0.164129,0.163349,0.163054
0.163338,0.163177,0.163017,0.164599,0.167106,0.164298,0.163144,0.165347,0.164026,0.164043,0.163035,0.164068,0.163264,0.163981,0.163652,0.163233,0.164605,0.16192,0.162134,0.161849,0.160487,0.15376,0.139156,0.106982,0.0595939,0.0199684,0.00230289,0.000759659,0.0015523,0.00208204,0.00118456,0.00131219,0.00103651,0.00328084,0.0013376,0.00124878,0.00402875,0.00113942,0.00667211,0.00119777,0.00146222,0.0017282,0.000926392,0.00251595,0.00154574,0.000932959,0.00108292,0.000923085,0.00127033,0.00113243,0.00126792,0.00140476,0.0135138,0.00107959,0.00067604,0.00146048,0.000818683,0.000729204,0.00209322,0.00110268,0.00157073,0.00095523,0.00112039,0.000557247,0.000564077,0.000639659,0.00102426,0.00046413,0.000393774,0.000567714,0.00137834,0.000467155,0.000345344,0,0,0.000480115,0.000357962,0,0,2.06946e-13,0.000412035,2.06946e-13,2.06946e-13,0,0,0,0,0.000415116,0.000375887,2.06946e-13,2.06946e-13,2.06946e-13,0,0.000445479,0.000555847,0,0,0,2.06946e-13,2.06946e-13,2.06946e-13,2.06946e-13,2.06946e-13,2.06946e-13,2.06946e-13,0,2.06946e-13,0,2.06946e-13,2.06946e-13,2.06946e-13,2.06946e-13,0,0,0,0,0,0.00036658,0.00157532,0.000733032,0.00350574,0.000945927,0.0019171,0.00136652,0.00311231,0.0007777,0.000648142,0.000565087,0.01445,0.0695019,0.119683,0.148672,0.179843,0.169685,0.162725,0.159473,0.162504,0.163484,0.16351,0.166491,0.158004,0.163837,0.16553,0.16187,0.164863,0.166444,0.164607,0.16426,0.164841,0.161897,0.163271,0.164336,0.164028,0.164102,0.162926
0.162749,0.163066,0.164671,0.150655,0.16389,0.16365,0.164192,0.162378,0.164977,0.164175,0.153815,0.16423,0.16322,0.164277,0.162755,0.161946,0.163423,0.164499,0.160425,0.161453,0.161667,0.161734,0.152394,0.120213,0.0831855,0.0261261,0.00175187,0.000542767,0.00129197,0.00153918,0.00136019,0.00148897,0.0132358,0.000941947,0.00221406,0.00185388,0.00254296,0.00125456,0.00122428,0.0013653,0.000793789,0.0009954,0.00275953,0.00126463,0.00159848,0.00229692,0.00106281,0.00216307,0.0013312,0.00100969,0.00199521,0.00769995,0.00122098,0.000753805,0.000651684,0.00117642,0.00266841,0.000986815,0.000890761,0.000816536,0.00151118,0.000637824,0.000639789,0.000610859,0.00174871,0.000647684,0.000476876,0.00052665,0.000495519,2.06946e-13,0.00222838,0.000413225,0.000426668,0.000414023,0.000413477,2.06946e-13,2.06946e-13,0.000380288,0,0,0,2.06946e-13,0,2.06946e-13,0,0.000465196,2.06946e-13,0.00148148,2.06946e-13,0,0.000445683,0,0,2.06946e-13,0.000457049,0,0.00172367,0.000380827,2.06946e-13,2.06946e-13,2.06946e-13,2.06946e-13,2.06946e-13,2.06946e-13,0,0,0,2.06946e-13,2.06946e-13,2.06946e-13,2.06946e-13,2.06946e-13,0,0.000367848,0,0,0,0,0.000838772,0.00133031,0.00128156,0.00227494,0.00956247,0.000740787,0.000577654,0.00196373,0.00143553,0.00284695,0.0479006,0.0731716,0.13378,0.164038,0.161767,0.161519,0.16301,0.162019,0.162241,0.164933,0.165745,0.164952,0.159567,0.164195,0.162989,0.171083,0.163467,0.164422,0.16327,0.164248,0.164446,0.164026,0.162745,0.162737,0.163377,0.162855,0.162147
0.162794,0.163528,0.164637,0.163999,0.163138,0.162974,0.163497,0.162922,0.164355,0.163175,0.165092,0.16605,0.164931,0.164532,0.162853,0.163812,0.163607,0.163383,0.162645,0.160425,0.165113,0.161671,0.16383,0.143958,0.064582,0.0514891,0.00308754,0.00221131,0.0138193,0.00199268,0.00121917,0.00178609,0.02509,0.0012632,0.00455341,0.00121766,0.000933452,0.00109897,0.00113176,0.00133687,0.00187527,0.00105799,0.00144669,0.00142401,0.00119116,0.00221346,0.00184033,0.00146413,0.000961343,0.00388979,0.00101654,0.00109814,0.000823372,0.000956942,0.000953953,0.00158988,0.00118621,0.000865307,0.000702957,0.00199358,0.00124361,0.000482116,0.000451346,0.000868732,0.000651735,0.000635488,0.000598852,0.00418954,0.000443049,0.00059696,0.00138498,0.000418572,0.000470366,0,0.000463804,0.00149428,0.000769647,2.06946e-13,2.06946e-13,2.06946e-13,0.00304916,2.06946e-13,0,2.06946e-13,2.06946e-13,0,2.06946e-13,0.000360713,0.000729224,2.06946e-13,0,0,0,0.00271359,0,0,0.000514159,2.06946e-13,2.06946e-13,0.000640064,2.06946e-13,2.06946e-13,2.06946e-13,2.06946e-13,2.06946e-13,2.06946e-13,0,0,0,0,2.06946e-13,2.06946e-13,0,0,0.000445588,0,0.000417964,0,0.000797566,0.00217282,0.000763467,0.00122053,0.00203098,0.00403476,0.00103422,0.000766647,0.000798257,0.00870685,0.00951734,0.154011,0.149498,0.160611,0.161736,0.164649,0.162234,0.164724,0.167223,0.169822,0.165206,0.163728,0.166473,0.160754,0.165318,0.163603,0.164513,0.163011,0.164053,0.16386,0.163482,0.162345,0.16343,0.163378,0.162625,0.162304,0.16206
0.162288,0.162091,0.16349,0.164101,0.161468,0.162944,0.163039,0.163937,0.164031,0.162934,0.161398,0.163657,0.162768,0.162659,0.163254,0.163038,0.161714,0.164357,0.163293,0.160559,0.164881,0.163195,0.160825,0.159058,0.115667,0.0612387,0.00262551,0.000716387,0.000884645,0.00511892,0.00147952,0.0030638,0.00134366,0.00304311,0.00110247,0.00113233,0.00143714,0.00664523,0.000964524,0.00103808,0.00183115,0.00088036,0.00301174,0.00116942,0.00115274,0.00149499,0.00109426,0.0148109,0.000987069,0.00174313,0.000970109,0.0010632,0.000829369,0.00101643,0.00103951,0.000965127,0.000935003,0.000919804,0.00367374,0.00680495,0.00303201,0.000727057,0.000977063,0.000784449,0.00696385,0.000692723,0.00135646,0.000738795,0.000678835,0.000517676,0.00564009,0.00332758,0.000427512,0,0.000404625,0.00209593,0.00102212,0.000649828,0,2.06946e-13,0.000356332,0,0,0,0,0,0,2.06946e-13,2.06946e-13,2.06946e-13,2.06946e-13,0.000375465,0.0105569,0.000482314,0.00046399,0,0,2.06946e-13,0.000346613,2.06946e-13,2.06946e-13,2.06946e-13,2.06946e-13,2.06946e-13,2.06946e-13,0,2.06946e-13,2.06946e-13,2.06946e-13,0,2.06946e-13,2.06946e-13,0,0,0,0,0,0,0.00116222,0.00972175,0.000967701,0.000811479,0.00228473,0.000962803,0.00193139,0.0008361,0,0.00604314,0.00179177,0.285108,0.156488,0.12112,0.219491,0.175731,0.163848,0.161548,0.165405,0.163566,0.163393,0.164449,0.163691,0.165269,0.164325,0.163498,0.162388,0.166677,0.164359,0.162421,0.16423,0.163657,0.163033,0.162695,0.162612,0.162384,0.161054
0.162064,0.161678,0.16201,0.162294,0.162602,0.16262,0.163683,0.162545,0.164691,0.164672,0.162969,0.163206,0.163783,0.162904,0.168101,0.162496,0.163209,0.162965,0.140422,0.161367,0.169178,0.160776,0.159668,0.159979,0.141202,0.0763495,0.00615783,0.000735579,0.000774058,0.00110801,0.00171794,0.00127049,0.000885611,0.00229757,0.0167415,0.00135396,0.00157074,0.00306609,0.00118099,0.00134083,0.0161523,0.00191866,0.00431452,0.000972402,0.00128653,0.00105384,0.000968441,0.00128025,0.00132666,0.00675414,0.00109813,0.00100838,0.00383007,0.00527553,0.000830994,0.00075597,0.00439172,0.00091073,0.000667083,0.000651212,0.00920732,0.000856778,0.000624791,0.00079405,0.000861328,0.00155776,0.00187908,0.00221007,0.000637764,0.000449286,0.00997609,0.000493762,0.00142506,0,0,0,0.000401488,0.0012477,0.000649753,0,0,2.06946e-13,0,2.06946e-13,2.06946e-13,2.06946e-13,0.000503768,0,0.000808634,0,2.06946e-13,0.00217722,0.000370011,2.06946e-13,0,0,0.000789944,0.000621454,0.00123052,2.06946e-13,2.06946e-13,2.06946e-13,2.06946e-13,2.06946e-13,2.06946e-13,0,2.06946e-13,2.06946e-13,0,0,2.06946e-13,0,0,0,0,0,0.000397288,0,0.00095212,0.00152965,0.0064304,0.00116065,0.00275992,0.00068023,0.00174819,0.000904041,0.00316778,0.00153833,0.00535521,0.144247,0.154846,0.182113,0.169288,0.163457,0.164468,0.161816,0.164244,0.160775,0.164317,0.162659,0.163022,0.164072,0.163501,0.165291,0.161954,0.161228,0.162105,0.163877,0.160857,0.162195,0.162799,0.161922,0.161723,0.163046,0.160435
0.161737,0.162051,0.161665,0.162181,0.162845,0.163049,0.162466,0.163677,0.163168,0.163575,0.162069,0.162475,0.163236,0.167044,0.164819,0.161579,0.162448,0.162722,0.161834,0.16237,0.16267,0.166607,0.153708,0.161944,0.158247,0.101101,0.0172481,0.000560506,0.0251991,0.00174032,0.0029329,0.00129928,0.00359515,0.00658374,0.00121763,0.00119516,0.000965704,0.00203334,0.0019846,0.00130435,0.00183759,0.00884456,0.00113959,0.00124401,0.0185884,0.00221346,0.00110745,0.00138883,0.00440656,0.000925275,0.00335441,0.00137831,0.00159498,0.00145775,0.00100395,0.00810726,0.000888088,0.00131381,0.00137332,0.0018905,0.000785801,0.000902022,0.000513559,0.000852228,0.000509137,0.00133919,0.000489624,0.000657333,0.000787804,0.000385204,0.00164252,0.000471718,0.000386307,0.000588478,0.000366431,2.06946e-13,0.000455121,2.06946e-13,0,0.000361727,0,2.06946e-13,2.06946e-13,2.06946e-13,2.06946e-13,2.06946e-13,2.06946e-13,0.00058376,2.06946e-13,2.06946e-13,0.00153033,0.00394805,0.00048949,0.000460145,0,0,0,0.000367604,2.06946e-13,0.000354856,2.06946e-13,2.06946e-13,2.06946e-13,2.06946e-13,2.06946e-13,2.06946e-13,0,0,2.06946e-13,0,2.06946e-13,0,0,0,0,0,0.00038218,0,0.000779712,0.00191301,0.000843029,0.00120701,0.00378622,0.000751719,0.00185865,0.0009711,0.00259807,0.00167962,0.195478,0.172351,0.161624,0.156544,0.156081,0.205127,0.163965,0.169033,0.164687,0.163702,0.168084,0.161538,0.171893,0.16265,0.157671,0.160882,0.161479,0.163064,0.161581,0.161201,0.161413,0.160143,0.158393,0.15788,0.159192,0.158767,0.16339
0.160783,0.162341,0.161373,0.162037,0.161434,0.163164,0.16247,0.161341,0.161545,0.16279,0.157828,0.162732,0.162489,0.162608,0.163943,0.163963,0.162149,0.1668,0.165388,0.159796,0.162939,0.165117,0.163163,0.162142,0.255688,0.142234,0.0014191,0.00163197,0.00136017,0.00682363,0.00167942,0.00113231,0.00190061,0.00126589,0.00125186,0.00128833,0.00173975,0.0011488,0.000914178,0.00115646,0.00128256,0.00103369,0.00168679,0.00109758,0.0081246,0.00596486,0.029743,0.00166086,0.00176477,0.00133467,0.001004,0.00186581,0.00127154,0.00171518,0.00685277,0.0022932,0.000830845,0.000884108,0.000921722,0.000740484,0.00291658,0.000786717,0.00159273,0.000827367,0.000547221,0.00148704,0.000781887,0.000426658,0.000446658,0.00122831,0.00236157,0.000367493,0.0085484,0.000722627,2.06946e-13,0.000845664,0.00036571,0.00350389,0.00037239,0,0,2.06946e-13,0.000684725,2.06946e-13,2.06946e-13,0,2.06946e-13,0.00132207,0.00176316,0.000361777,0.00114747,2.06946e-13,0.000452415,0.000529993,0.000475953,0,0.00159136,0.000842183,0.00508677,2.06946e-13,2.06946e-13,2.06946e-13,2.06946e-13,2.06946e-13,2.06946e-13,2.06946e-13,2.06946e-13,0,0,0,0,0,0,0,0,0,0.000394673,0.000374552,0.00209228,0.00084529,0.0648308,0.000754054,0.00162343,0.0308165,0.00114858,0.000403352,0.00121008,0.00281236,0.132878,0.142149,0.170766,0.146364,0.161342,0.166946,0.155152,0.167394,0.166957,0.162393,0.171365,0.162381,0.161259,0.157708,0.158676,0.16037,0.157282,0.158259,0.15776,0.144874,0.156449,0.156354,0.154681,0.153797,0.148526,0.15333,0.140364
0.159983,0.160576,0.161286,0.160664,0.161217,0.160718,0.161582,0.161033,0.162975,0.160315,0.161616,0.161977,0.162264,0.164556,0.162711,0.162515,0.164057,0.163492,0.166616,0.162197,0.159752,0.162326,0.194546,0.166772,0.162703,0.162795,0.0459145,0.00246066,0.00142884,0.0056163,0.0013479,0.00744912,0.0046844,0.131952,0.00168415,0.00130747,0.00129554,0.00121681,0.00185673,0.00121002,0.00110933,0.00103532,0.00379767,0.00107062,0.0069491,0.00110998,0.00202178,0.000770207,0.00131347,0.00134986,0.00106189,0.00119147,0.000897548,0.000737452,0.00114586,0.000884898,0.000956346,0.00103423,0.000906482,0.000903173,0.00106597,0.000569115,0.00116905,0.00380593,0.000804313,0.00209274,0.000794553,0.000472893,0.00058964,0.00212406,0.00682973,0.000450331,0,0.00039355,0,0.000454466,0.000376684,0,2.06946e-13,2.06946e-13,0,2.06946e-13,0,0,0,2.06946e-13,0,0.000561787,0,0,2.06946e-13,2.06946e-13,0.000380902,0.00121405,0.00150596,0,0.000446387,0.000371824,2.06946e-13,0.000471764,2.06946e-13,2.06946e-13,2.06946e-13,2.06946e-13,2.06946e-13,0,0,0,0,2.06946e-13,2.06946e-13,0,0,0,0,0,0,0,0.00097809,0.000814424,0.0249811,0.000782419,0.00243841,0.00121016,0.000980718,0.000479603,0.000826918,0.000564351,0.22543,0.191379,0.152091,0.16807,0.17236,0.187423,0.175049,0.154031,0.161717,0.15818,0.154459,0.158176,0.15552,0.153026,0.154796,0.152701,0.152779,0.151888,0.151029,0.150588,0.148097,0.147693,0.148453,0.142682,0.145915,0.148624,0.141941
0.154757,0.155479,0.156633,0.131969,0.156673,0.158392,0.16018,0.15802,0.159069,0.159913,0.154918,0.160468,0.160728,0.161353,0.163557,0.16466,0.162228,0.160638,0.182774,0.163085,0.16462,0.163015,0.101212,0.161488,0.182747,0.120134,0.0152516,0.000616282,0.000628675,0.000892889,0.00110658,0.00151134,0.00255411,0.00485883,0.00127072,0.00117144,0.00129865,0.00163395,0.00126426,0.000976096,0.00306882,0.00151382,0.0134143,0.00109998,0.00151182,0.00114145,0.00141908,0.106563,0.00109823,0.00112703,0.00133543,0.00209285,0.00112567,0.00145913,0.00464601,0.00173968,0.000630728,0.00113481,0.00101548,0.000765265,0.00248499,0.00712407,0.0016198,0.000656407,0.00467352,0.000848599,0.00668194,0.000554075,0.000373905,0.00207316,0.00128188,0.000862515,2.06946e-13,2.06946e-13,0,0.00176364,2.06946e-13,0.000636425,2.06946e-13,0,0.000954962,0,0,0,0.00127881,0,0,0.000380737,0,2.06946e-13,0,2.06946e-13,0.00039333,0.000471371,0,0,0.000753238,0,2.06946e-13,2.06946e-13,2.06946e-13,2.06946e-13,2.06946e-13,2.06946e-13,2.06946e-13,2.06946e-13,2.06946e-13,2.06946e-13,2.06946e-13,0,2.06946e-13,0,0,0,0,0.000355643,0.000388954,0.0026178,0.000622901,0.0192756,0.000611316,0.00139973,0.00239293,0.000686461,0.000961161,0.000800321,0.000716174,0,0.159058,0.174572,0.147864,0.141435,0.148496,0.147955,0.151035,0.147681,0.122697,0.146794,0.141219,0.142944,0.14423,0.143919,0.14102,0.142111,0.141153,0.140722,0.140299,0.128872,0.139219,0.140111,0.138553,0.133183,0.286591,0.134919,0.135015
0.146564,0.148303,0.147765,0.137395,0.136698,0.148016,0.147809,0.149111,0.135802,0.149361,0.151541,0.149475,0.149394,0.146741,0.151341,0.156099,0.153551,0.153559,0.153659,0.117053,0.152624,0.154324,1.4255,0.158204,0.150246,0.116843,0.350144,0.000500541,0.0013604,0.00165271,0.00100589,0.00113771,0.00128061,0.000962448,0.00149806,0.0016147,0.00452489,0.00119436,0.00126265,0.0019545,0.000758615,0.000883575,0.00110639,0.00990404,0.000947751,0.00109593,0.000840526,0.00246579,0.00267619,0.0012057,0.000976357,0.00306008,0.00644513,0.00196596,0.129664,0.000864714,0.000908548,0.00101768,0.000813047,0.000600123,0.000954844,0.00101066,0.00110678,0.000463388,0.000519219,0.000569472,0.000562397,0.000441175,0.000443058,0.000426884,0.00162715,0.000507223,0.00238947,0.0015809,0.000401894,0.000476042,0.000384842,0,2.06946e-13,2.06946e-13,0.000369027,2.06946e-13,0,2.06946e-13,0,2.06946e-13,0,2.06946e-13,0,0.0264566,0.00134854,2.06946e-13,0.000848297,0.00150959,0.000427151,0,0,0,2.06946e-13,2.06946e-13,2.06946e-13,2.06946e-13,2.06946e-13,2.06946e-13,2.06946e-13,2.06946e-13,0,0,0,2.06946e-13,0,0,0,0,0,0,0.000407262,0.000795772,0.00070565,0.000962328,0.000717007,0.00164299,0.00226215,0.000593487,0.000703695,0.0129547,0.360754,0.138048,0.137682,0.135936,0.140974,0.158052,0.13494,0.132654,0.122371,0.134629,0.121681,0.13032,0.143613,0.133198,0.13216,0.131418,0.120038,0.13121,0.131208,0.131152,0.131418,0.130776,0.130183,0.130798,0.130549,0.129979,0.129835,0.130111,0.127973
0.137796,0.139608,0.13546,0.139719,0.138164,0.138773,0.13744,0.138136,0.177919,0.138437,0.140074,0.139603,0.138643,0.139493,0.138447,0.138382,0.139493,0.131508,0.132113,0.145271,0.129419,0.141869,0.126375,0.139355,0.13774,0.141089,0.143081,0.100757,0.000609591,0.00191434,0.00114814,0.00103728,0.00102922,0.0021961,0.00122842,0.00245401,0.00116269,0.00199967,0.00141626,0.00106179,0.00176534,0.0013026,0.00105215,0.00135018,0.00216822,0.00145023,0.00126605,0.00187124,0.0021891,0.00230013,0.00158161,0.00397529,0.00152166,0.0010455,0.00135871,0.00614345,0.0022086,0.000860302,0.000728741,0.00118933,0.000676104,0.000651468,0.00146122,0.00980986,0.000818733,0.00673119,0.0004896,0.000465637,0.0017627,0.000629291,0.00087061,0.00136972,0.000385032,0,0.000363891,0,0,0.000346648,2.06946e-13,0,0,2.06946e-13,0,2.06946e-13,0,2.06946e-13,0.000353642,0.000834676,0,0.000609164,2.06946e-13,0.00135861,0.000358132,0.00041663,0,0,0,0.000364835,2.06946e-13,2.06946e-13,2.06946e-13,2.06946e-13,2.06946e-13,2.06946e-13,2.06946e-13,2.06946e-13,0,0,0,0,0,0,0,0,0,0,0,0.00284359,0.00167225,0.000846051,0.000652337,0.000683455,0.00161109,0.000878014,0.000671473,0.0011529,0.114081,0.120975,0.123814,0.126121,0.125792,0.123184,0.125593,0.125619,0.119533,0.120558,0.122137,0.127849,0.124753,0.125363,0.124766,0.124834,0.124838,0.124705,0.125685,0.124211,0.124281,0.123912,0.124609,0.123953,0.123959,0.124411,0.124148,0.123595,0.1223
0.129056,0.128937,0.129975,0.129588,0.128397,0.128577,0.128429,0.128424,0.128095,0.117534,0.127782,0.127037,0.127311,0.128269,0.12749,0.123139,0.127033,0.123681,0.127548,0.126924,0.125617,0.129483,0.125035,0.122275,0.118491,0.122034,0.12527,0.127544,0.122106,0.0382477,0.00577922,0.00117093,0.00344586,0.0015672,0.00195203,0.00105213,0.00110178,0.00150945,0.0010507,0.00558149,0.000906379,0.00267654,0.00233058,0.00329338,0.00166729,0.00358964,0.00133322,0.000854367,0.00120194,0.0332385,0.000904064,0.00134895,0.0412728,0.00113572,0.000816997,0.000907133,0.00121915,0.000941189,0.0192968,0.000810763,0.000975456,0.000717919,0.000563021,0.000678588,0.000440177,0.000439901,0.000477468,0.000781848,0.00363988,0.000433692,0.000826883,0,2.06946e-13,0.000492465,0.000449827,2.06946e-13,2.06946e-13,0.000350576,2.06946e-13,2.06946e-13,0,0,2.06946e-13,2.06946e-13,2.06946e-13,0,2.06946e-13,0.000400914,0.000380649,0.00036746,0,2.06946e-13,0.000578583,0.000457229,0,0,0,0.000481804,0.00079659,2.06946e-13,2.06946e-13,2.06946e-13,2.06946e-13,2.06946e-13,2.06946e-13,2.06946e-13,0,0,2.06946e-13,0,0,0,0,0,0,0,0,0,0.00632422,0.000816038,0.00129919,0.00666972,0.0065964,0.00254965,0.000598322,0.120508,0.121861,0.121306,0.1219,0.123533,0.115713,0.121959,0.120212,0.119517,0.121563,0.122169,0.120677,0.1208,0.12175,0.121715,0.12139,0.121008,0.121055,0.121517,0.121452,0.121319,0.120925,0.120449,0.121118,0.121038,0.120322,0.121084,0.120833,0.120945,0.120406
0.122289,0.122965,0.123216,0.121868,0.122142,0.122797,0.122638,0.122141,0.122347,0.120787,0.122151,0.122145,0.119159,0.121662,0.122119,0.121875,0.122212,0.121353,0.121543,0.120542,0.120719,0.120295,0.12163,0.167066,0.121328,0.120652,0.121499,0.120407,0.121278,1.10664,0.0027622,0.00140499,0.0014321,0.00145112,0.000951526,0.00128728,0.00141455,0.00296314,0.00247769,0.00175712,0.00109447,0.00313807,0.00101693,0.000889318,0.000941361,0.00179333,0.0695366,0.00122656,0.00091514,0.00161438,0.00185221,0.0011295,0.0293296,0.000876629,0.00147601,0.000954602,0.00377953,0.000894386,0.000796229,0.000859624,0.000643658,0.00248645,0.000736936,0.000484043,0.000823899,0.000867439,0.000393356,0.000670911,0.00061683,0.000752252,0.000782863,0.000779813,0,2.06946e-13,0,0.00166583,2.06946e-13,2.06946e-13,0,2.06946e-13,2.06946e-13,0,2.06946e-13,2.06946e-13,2.06946e-13,2.06946e-13,0.000445636,2.06946e-13,0.000464495,0.000358316,0,0.000478471,0.000403387,0.000376224,0.000389572,0.00311007,0.000389269,2.06946e-13,2.06946e-13,2.06946e-13,2.06946e-13,2.06946e-13,2.06946e-13,2.06946e-13,2.06946e-13,2.06946e-13,0,0,0,2.06946e-13,0,0,0,0,0,0,0,0.000723378,0.000434259,0.000667614,0.000853234,0.00318259,0.00159429,0.0010962,0.120639,0.12144,0.121135,0.121067,0.121185,0.121095,0.121219,0.12108,0.12107,0.121096,0.120935,0.120922,0.120547,0.121116,0.120508,0.120829,0.121061,0.120961,0.120851,0.121015,0.120723,0.0985133,0.121356,0.120981,0.120935,0.121167,0.121227,0.121037,0.121136,0.121041,0.120375
0.120407,0.12137,0.120791,0.120833,0.120661,0.12097,0.120626,0.12075,0.120582,0.120992,0.120847,0.12079,0.120513,0.120876,0.121105,0.120781,0.120891,0.121009,0.121917,0.120791,0.120847,0.121049,0.120833,0.120154,0.120154,0.215088,0.120772,0.120829,0.12046,0.12069,0.121353,0.00106799,0.00193687,0.00229897,0.00120601,0.0122335,0.00150572,0.0014957,0.118663,0.00107445,0.00242158,0.00147127,0.00209883,0.00137144,0.000979378,0.0151605,0.00113537,0.000810988,0.00136028,0.0017592,0.0193873,0.000944664,0.0012361,0.00152403,0.00119733,0.00119257,0.000945801,0.00204097,0.000782923,0.000615313,0.00092114,0.000856849,0.000850543,0.00103443,0.000530475,0.00399299,0.000584678,0.0210703,0.000591432,0.0012469,0.000811123,0.000666594,0.00057255,2.06946e-13,0.00412762,2.06946e-13,0,0,0,0,2.06946e-13,2.06946e-13,0,2.06946e-13,0.00356249,0.000889235,2.06946e-13,0.00111649,0.00045508,0,0.000452498,0.000390004,0.000578111,0.00037215,0.000454942,0,0.000569845,0,2.06946e-13,2.06946e-13,2.06946e-13,2.06946e-13,2.06946e-13,2.06946e-13,2.06946e-13,2.06946e-13,2.06946e-13,0,0,2.06946e-13,0,0,0,0.000354317,0,0,0.000436753,0.00047522,0.00038737,0.024505,0.000789768,0.0013764,0.00385178,0.120933,0.120675,0.121059,0.120887,0.120751,0.121201,0.120932,0.121032,0.120869,0.121244,0.121167,0.120886,0.121244,0.120942,0.120601,0.121537,0.120214,0.121267,0.120808,0.120353,0.120856,0.122004,0.120851,0.12064,0.121371,0.123365,0.120854,0.12099,0.1209,0.120667,0.120897,0.120328
0.120377,0.12123,0.12116,0.121012,0.110881,0.12079,0.120869,0.121261,0.121433,0.120998,0.120639,0.120948,0.120811,0.119209,0.120346,0.121173,0.12079,0.120998,0.120878,0.120798,0.12032,0.120822,0.120847,0.123206,0.120526,0.119922,0.12112,0.120838,0.120812,0.120783,0.120828,0.120888,0.00138703,0.001225,0.00225187,0.0129014,0.00130536,0.00165681,0.00108525,0.0018547,0.00391279,0.0010295,0.00128814,0.00103793,0.0016584,0.00105913,0.000975193,0.00125427,0.00155998,0.00103701,0.00125492,0.00108798,0.00137134,0.00183321,0.0016147,0.00133771,0.00136464,0.00754195,0.000725294,0.00107331,0.00202934,0.00107295,0.000575034,0.000645168,0.00224889,0.0011707,0.000759828,0.000406622,0.000368213,0.000455657,0.00173533,0.000357653,0.00189011,0,0.00318164,0.000379894,0.00203078,0,0,0,0,2.06946e-13,2.06946e-13,0.000456917,0,2.06946e-13,0,0.000353643,0.000366087,2.06946e-13,2.06946e-13,0.000455153,0.00103271,0.00121297,0.000394938,0,0,0,0.000873713,0.000372854,2.06946e-13,2.06946e-13,2.06946e-13,2.06946e-13,2.06946e-13,2.06946e-13,2.06946e-13,2.06946e-13,0,0,0,0,0,0.000368469,0,0,0,0,0.000654124,0.00107143,0.00145449,0.000671928,0.119949,0.120608,0.12072,0.12173,0.120277,0.120864,0.120738,0.12136,0.120568,0.120049,0.120422,0.120512,0.120557,0.120364,0.120468,0.118298,0.120467,0.120557,0.121137,0.120399,0.120089,0.120576,0.120722,0.120758,0.121167,0.120529,0.120763,0.120492,0.120543,0.120572,0.120133,0.120312,0.119996
0.120257,0.120687,0.122252,0.120593,0.120713,0.120751,0.120761,0.121639,0.120759,0.120805,0.120932,0.120518,0.121018,0.115195,0.120941,0.121913,0.12074,0.123279,0.120566,0.119468,0.120756,0.120584,0.120538,0.106706,0.120715,0.106706,0.120449,0.115428,0.120921,0.120575,0.121407,0.121407,0.130754,0.00251962,0.00591583,0.00094178,0.00142761,0.00104572,0.00106829,0.00112062,0.00113372,0.00111826,0.0012293,0.00280299,0.00292271,0.00238045,0.0353922,0.016188,0.00181473,0.00110143,0.000922022,0.00117446,0.00103126,0.000789971,0.000781154,0.000785331,1.47067,0.00152858,0.000785337,0.000823873,0.00744013,0.00331055,0.000759729,0.00075924,0.00231979,0.000448828,0.000443917,0.000665537,0.00103252,0.000550293,0.00258848,0.000371622,0.000352984,0.000372393,0.000423516,2.06946e-13,2.06946e-13,0.000480894,2.06946e-13,2.06946e-13,2.06946e-13,2.06946e-13,0.000423942,0,2.06946e-13,2.06946e-13,0.000485922,2.06946e-13,0,0.000599328,0.00036072,0.000371948,0.000357328,0.00104422,0,0,0.000471142,0.00042967,0.000391739,2.06946e-13,2.06946e-13,2.06946e-13,2.06946e-13,2.06946e-13,2.06946e-13,2.06946e-13,2.06946e-13,0,0,0,0,0,0,0,0,0,0.000385557,0.00080117,0.000836971,0.0246794,0.00293994,0.120403,0.120177,0.120302,0.120152,0.120203,0.120553,0.120055,0.120426,0.120245,0.120216,0.120417,0.120368,0.120195,0.120363,0.120211,0.12048,0.120107,0.120578,0.119989,0.120231,0.120308,0.119743,0.120317,0.120052,0.120214,0.120151,0.119948,0.120131,0.120122,0.117406,0.120234,0.119971,0.11951,0.119732
0.120061,0.12072,0.121239,0.120292,0.129582,0.119948,0.12029,0.120346,0.120735,0.120602,0.120393,0.120453,0.120512,0.12038,0.121056,0.121447,0.120688,0.121014,0.120911,0.120605,0.120311,0.121181,0.120579,0.120974,0.120564,0.120512,0.120258,0.120518,0.119056,0.119816,0.120925,0.120492,0.120292,0.120345,0.00115012,0.00209171,0.00135583,0.0012152,0.00100205,0.00202918,0.00268182,0.00118366,0.00134696,0.00119866,0.00188977,0.00100205,0.00107291,0.00102483,0.00429261,0.00116335,0.000889988,0.00111815,0.00139364,0.000945757,0.001075,0.00118474,0.000894371,0.00314786,0.000843161,0.000820687,0.000650408,0.000824953,0.00072876,0.00112037,0.00315145,0.000428081,0.000578894,0.000401225,0.0118596,0.002491,0.00192426,0.000613426,0.000449641,0.00488901,2.06946e-13,0.000385615,0.000556599,0,2.06946e-13,2.06946e-13,0.00297599,2.06946e-13,2.06946e-13,2.06946e-13,0,2.06946e-13,0.000769534,2.06946e-13,0,0.000419377,0.000443076,1.04445,0.000633416,0.00069087,0,0,0.00149087,0,2.06946e-13,2.06946e-13,2.06946e-13,2.06946e-13,2.06946e-13,2.06946e-13,2.06946e-13,2.06946e-13,2.06946e-13,0,0,2.06946e-13,0,0,0,0,0,0,0,0.000600882,0.00097809,0.000669563,0.554717,0.119905,0.118525,0.119287,0.119845,0.119902,0.119792,0.12,0.119888,0.119913,0.120163,0.120197,0.119409,0.120347,0.120008,0.119901,0.119708,0.119976,0.119964,0.120155,0.120043,0.120063,0.11899,0.120843,0.119491,0.119755,0.120038,0.120107,0.119662,0.119864,0.117696,0.119283,0.119982,0.120414,0.119438
0.119882,0.118903,0.11941,0.120544,0.120232,0.119957,0.120379,0.119846,0.12056,0.120429,0.120993,0.120316,0.119591,0.120769,0.120458,0.120692,0.119968,0.120219,0.120342,0.120528,0.120449,0.120187,0.120058,0.120338,0.120302,0.120452,0.120416,0.120247,0.120034,0.118224,0.120404,0.120151,0.120367,0.120546,0.1209,0.00138974,0.00231533,0.00692015,0.00110806,0.00127887,0.00115636,0.0014094,0.00271594,0.000886633,0.00111255,0.0024887,0.00130753,0.00130611,0.00166587,0.00122918,0.00145508,0.00369049,0.00982029,0.000683236,0.00153322,0.00106803,0.00263836,0.00288558,0.000667073,0.000732093,0.000883501,0.00100516,0.000725663,0.000671565,0.000602164,0.000806671,0.000472321,0.000559777,0.000616404,0.00108863,0.0067651,0.000465257,0.00882185,0.000405851,0,0.000400065,0.000404864,0.000350433,0,0.000397292,0,2.06946e-13,0,0,0,0,0,2.06946e-13,0.000416075,0.000440494,0.0280706,0,0,0,0,0.000488975,0.000395169,0,2.06946e-13,2.06946e-13,2.06946e-13,2.06946e-13,2.06946e-13,2.06946e-13,2.06946e-13,2.06946e-13,2.06946e-13,0,0,0,0,0,0,0,0,0,0,0.000380225,0.000389949,0.122609,0.120789,0.121071,0.119053,0.119622,0.119653,0.120648,0.119566,0.119463,0.119258,0.11932,0.119094,0.118852,0.1193,0.116126,0.118611,0.118939,0.122121,0.118077,0.118774,0.119226,0.118962,0.119049,0.119081,0.119218,0.118637,0.119373,0.119339,0.119395,0.119775,0.119212,0.119268,0.119298,0.119464,0.119576,0.119169
0.119583,0.120324,0.120055,0.120737,0.120423,0.119829,0.120301,0.119443,0.120184,0.120053,0.119973,0.120381,0.121155,0.120232,0.11999,0.120142,0.119981,0.119926,0.2375,0.117755,0.120008,0.120163,0.121088,0.119298,0.120139,0.119878,0.120228,0.115424,0.115424,0.119811,0.119483,0.122718,0.119868,0.120154,0.119478,0.119987,0.00176628,0.00223497,0.00117921,0.00134081,0.000919559,0.00121355,0.0016988,0.000805782,0.00110914,0.00903874,0.00363811,0.00102976,0.00113731,0.000862865,0.00122018,0.00130184,0.00112352,0.000926506,0.00115568,0.000831192,0.0014288,0.00111417,0.000798838,0.0013043,0.000825884,0.0434718,0.000918799,0.00448652,0.000536601,0.00140901,0.000409619,0.000497321,0.000763033,0.000511096,0.000712863,0.000564412,0.000568444,0.00051162,0,2.06946e-13,0.000632192,2.06946e-13,0.000439214,2.06946e-13,0,0,0,2.06946e-13,2.06946e-13,2.06946e-13,0.000689919,0.000477739,0.00046836,0.000649619,0.00126387,0,0.00066005,0.000463658,0.000370646,0.000468548,0,2.06946e-13,2.06946e-13,2.06946e-13,2.06946e-13,2.06946e-13,2.06946e-13,2.06946e-13,2.06946e-13,2.06946e-13,2.06946e-13,0,2.06946e-13,2.06946e-13,0,0,0,0,0,0,0,0.000345865,0.119239,0.11948,0.119406,0.119514,0.119461,0.119324,0.119211,0.11925,0.119443,0.119403,0.119411,0.119307,0.119462,0.119205,0.119311,0.119207,0.120499,0.119301,0.119296,0.119275,0.119377,0.119302,0.119179,0.119131,0.115584,0.11913,0.11918,0.119579,0.119286,0.119283,0.118859,0.119397,0.119255,0.119259,0.119308,0.119271,0.118948
0.119448,0.120099,0.120018,0.119278,0.120076,0.120686,0.119723,0.118796,0.120073,0.120294,0.119897,0.120203,0.120146,0.119896,0.120097,0.120063,0.119625,0.119865,0.119438,0.120626,0.118964,0.120005,0.120238,0.119725,0.120022,0.119821,0.11879,0.120041,0.120328,0.119747,0.120538,0.119975,0.119413,0.120179,0.120211,0.119673,0.131063,0.00133021,0.00172074,0.0011085,0.00221744,0.00110894,0.000925037,0.00127491,0.00252266,0.00126678,0.00093647,0.0029671,0.00083871,0.000782327,0.00108045,0.00145046,0.00169957,0.00187983,0.00123897,0.00121988,0.000764216,0.00121475,0.000938063,0.00119221,0.0016971,0.000655134,0.00315535,0.000521054,0.000702129,0.00231855,0.000519459,0.000352188,0,0.00121453,0.000603056,0.000421004,0.00110119,0.00136223,0.000644714,0.000346357,2.06946e-13,2.06946e-13,0.000675032,0.000407572,2.06946e-13,2.06946e-13,0.000406074,2.06946e-13,2.06946e-13,0,0,0.00069827,0,0.0150454,0.00168873,2.06946e-13,0.00174753,0,0.0139986,0.00131156,0.0394775,0.00200492,0.000887817,0.000925353,0.00149212,2.06946e-13,0,0.00944294,0.00167914,0.00113959,0.00376108,0.0087935,0.000482311,0.00110891,0.00244768,0.00105867,0.00174924,0.00141881,0.00997794,0.00171243,0.000784705,0.00781501,0.118965,0.119183,0.119117,0.118988,0.11913,0.119006,0.119166,0.118932,0.118987,0.118935,0.118898,0.119128,0.119346,0.119009,0.118617,0.119426,0.119108,0.119125,0.111474,0.119036,0.119021,0.118996,0.1191,0.119034,0.120482,0.119248,0.119085,0.119111,0.118964,0.118868,0.119158,0.118967,0.118922,0.118862,0.118954,0.118985,0.118726
0.119223,0.119958,0.120368,0.119973,0.119873,0.119875,0.119561,0.120151,0.119686,0.11933,0.120704,0.119394,0.120148,0.118173,0.117974,0.119707,0.119811,0.119943,0.119956,0.118214,0.119888,0.119735,0.11989,0.120242,0.116191,0.119382,0.119426,0.119302,0.119697,0.119302,0.12083,0.119856,0.120344,0.119796,0.119903,0.121776,0.119888,0.106167,0.00160996,0.00114817,0.000973609,2.06946e-13,0.00307564,0.0015885,0.00079817,0.00231739,0.00312242,0.00338548,0.000853639,0.0019347,0.00121017,0.00161,0.0012034,0.00519291,0.000901672,0.00109615,0.0343033,0.0011352,0.0209205,0.00102262,0.0349394,0.00246606,0.00172612,0.000982786,0.00369865,0.00160746,0.00158993,0.000933407,0.00147107,0.00533278,0.00240267,0.0011389,0.00096678,0.00112661,0.00185972,0.00140674,0.00337931,0.00132633,0.000972283,0.00132735,0.00131933,0.00131363,0.00106087,0.000863312,0.0021468,0.00111372,0.00412666,0.0010565,0.000919869,0.00136021,0.0014448,0.00116431,0.00288395,0.00100863,0.00104667,0.00141193,0.00214377,0.000789493,0.00273479,0.00105867,0.000778204,0.00189916,0.000923814,0.00298714,0.0017048,0.00267037,0.00120188,0.000597738,0.00351884,0.00106086,0.0215202,0.00109245,0.00118387,0.00255996,0.00123711,0.000914535,0.000719458,0.001156,0.00209491,0.300416,0.11888,0.118961,0.118907,0.118958,0.118609,0.118789,0.118917,0.118935,0.118301,0.119179,0.118967,0.118975,0.118831,0.118836,0.118685,0.118388,0.118672,0.119179,0.118993,0.118955,0.118878,0.118874,0.118613,0.118448,0.119399,0.118875,0.11899,0.118907,0.119564,0.118913,0.120756,0.118842,0.118806,0.118334,0.118634
0.118997,0.120002,0.121051,0.119671,0.119867,0.119945,0.119573,0.119545,0.120307,0.119883,0.11988,0.119989,0.118911,0.120948,0.119781,0.121819,0.119877,0.120096,0.118906,0.131876,0.119362,0.119844,0.119117,0.118885,0.119794,0.118851,0.118449,0.117753,0.119928,0.119725,0.119704,0.119977,0.120214,0.120143,0.120378,0.119856,0.124197,0.00803104,0.0024438,0.00084459,0.00156597,0.00132012,0.00584345,0.000820989,0.00156145,0.00114611,0.00086537,0.00167739,0.00102224,0.000962683,0.0010154,0.0232846,0.0019985,0.00126057,0.00137807,0.00277821,0.00125321,0.00181486,0.00110225,0.0194602,0.000932992,0.00651469,0.00122394,0.00222173,0.002062,0.00102687,0.00185989,0.00269449,0.00214587,0.00164861,0.00109433,0.00123602,0.00221499,0.00119976,0.00141056,0.00110531,0.00156044,0.0918907,0.000940152,0.00109732,0.000939569,0.00109046,0.00144213,0.00819656,0.00109055,0.00117198,0.0022712,0.00106269,0.0011898,0.000974547,0.00104031,0.00127341,0.00104961,0.00106088,0.00124003,0.00225188,0.0126073,0.00123338,0.00128168,0.00366418,0.00426444,0.000872254,0.00120363,0.0147175,0.00161031,0.00128794,0.00256464,0.00161034,0.00163091,0.00287521,0.000872028,0.00905226,0.00112475,0.00147817,0.00416454,0.00188968,0.00109963,0.00203203,0.00122925,0.00224061,0.00407396,0.118846,0.118663,0.119215,0.118814,0.118862,0.118817,0.118932,0.118224,0.117862,0.117992,0.118609,0.118911,0.118883,0.118881,0.118894,0.118807,0.118858,0.118912,0.118906,0.118513,0.118885,0.118799,0.118732,0.118834,0.118958,0.118888,0.118841,0.1189,0.11909,0.118893,0.118884,0.119006,0.118777,0.118645
0.118997,0.119303,0.119898,0.121241,0.119422,0.119189,0.117642,0.119682,0.119971,0.119255,0.119134,0.120955,0.119843,0.119557,0.119696,0.11958,0.118832,0.11988,0.119313,0.119161,0.119852,0.119403,0.121114,0.121899,0.12023,0.11979,0.119738,0.119495,0.120095,0.119739,0.118707,0.119863,0.120698,0.119979,0.119931,0.118806,0.000625229,0.00123616,0.000824862,0.00523737,0.00200032,0.000979891,0.00118517,0.00095698,0.00203892,0.00181683,0.000917755,0.00120326,0.00105329,0.0032776,0.00136727,0.00115303,0.00172806,0.000916593,0.00116212,0.00117219,0.00761397,0.000943998,0.000991088,0.010308,0.00616607,0.00100065,0.0013272,0.00138083,0.0198974,0.00189279,0.000841591,0.00128854,0.00249268,0.00158677,0.00216796,0.00113081,0.00097269,0.00309521,0.00146809,0.00129787,0.00102275,0.00195615,0.00111483,0.0156646,0.00182346,0.00122152,0.0167878,0.00128052,0.000974383,0.0019933,0.00224323,0.0016028,0.00228724,0.000992867,0.000964437,0.00214728,0.00119488,0.00162508,0.00479877,0.000838161,0.00236625,0.00544139,0.00734857,0.00122756,0.0013876,0.0010507,0.00113412,0.000996524,0.0158192,0.0012354,0.00129294,0.000763431,0.000446127,0.00140003,0.00196961,0.00769297,0.0125801,0.0526259,0.00153208,0.00458313,0.000929251,0.00134752,0.000917688,0.00798692,0.00179592,0.409486,0.11884,0.118862,0.118714,0.119398,0.118794,0.118748,0.118725,0.118821,0.119115,0.118731,0.118927,0.118967,0.118903,0.119032,0.118931,0.118853,0.118951,0.119683,0.11893,0.118724,0.118882,0.118884,0.118978,0.118633,0.119389,0.118999,0.119313,0.118979,0.118881,0.118968,0.118964,0.119192,0.118807
0.118924,0.119234,0.119789,0.119698,0.120908,0.122874,0.119958,0.119575,0.120101,0.119646,0.121384,0.119464,0.117506,0.116589,0.121345,0.118905,0.119955,0.119711,0.119992,0.119576,0.119748,0.120907,0.14518,0.119673,0.117207,0.119948,0.119977,0.119469,0.115419,0.119791,0.118721,0.0981176,0.120066,0.120331,0.119581,0.00104934,0.00149233,0.000837287,0.000573256,0.00138886,0.000901327,0.000996568,0.000887111,0.00125106,0.00071258,0.00101672,0.00124048,0.00338548,0.00871634,0.00103415,0.000952043,0.000931773,0.00122569,0.0676658,0.00125424,0.00663025,0.00695672,0.000969941,0.00119097,0.00124417,0.00274235,0.00122425,0.00154709,0.00154008,0.000926213,0.00140563,0.00105406,0.00107061,0.0145355,0.000923792,0.0138048,0.00116566,0.0012023,0.000928068,0.00189366,0.000954355,0.00126803,0.00306319,0.00176855,0.000934956,0.00097954,0.00189316,0.002043,0.000856711,0.00166107,0.00150949,0.00105503,0.00155544,0.00109209,0.00112035,0.00233476,0.00162137,0.000915913,0.00136833,0.00169903,0.0008805,0.00128734,0.00109868,0.00110009,0.00483362,0.00179626,0.00148696,0.013786,0.000882906,0.00142821,0.00111831,0.00102033,0.000995381,0.000472616,0.000743982,0.0019164,0.00136452,0.00102057,0.00107716,0.00168143,0.00103613,0.00652013,0.000595,0.000842943,0.00336252,0.00155648,0.00103735,0.119045,0.119086,0.118733,0.119094,0.119059,0.119256,0.119126,0.119714,0.119118,0.119124,0.119042,0.11954,0.119167,0.119248,0.119052,0.118926,0.118891,0.119324,0.119304,0.123639,0.118728,0.119322,0.119307,0.119323,0.119123,0.119357,0.119256,0.119438,0.119248,0.119236,0.119282,0.119402,0.119119
0.119109,0.11983,0.119631,0.120225,0.119047,0.11924,0.120082,0.120455,0.118411,0.120427,0.120515,0.117502,0.1202,0.121293,0.119821,0.106711,0.119905,0.11967,0.121634,0.109519,0.118807,0.119733,0.119733,0.120052,0.120163,0.119816,0.161681,0.119629,0.120109,0.121362,0.120478,0.118195,0.119311,0.119592,0.000434866,0.000772997,0.000544767,0.0100929,0.00149671,0.00661268,0.000881843,0.000920912,0.00160409,0.00100996,0.00117671,0.00146038,0.00122655,0.00741231,0.00133695,0.00258272,0.00296794,0.00134288,0.00239752,0.00127989,0.00136523,0.00330837,0.00136262,0.00108565,0.00815431,0.000950907,0.000850527,0.121201,0.00327567,0.00138019,0.00106343,0.00116341,0.00459641,0.000777619,0.000898751,0.00119603,0.000807735,0.00214478,0.00363758,0.0028453,0.000982883,0.00133457,0.00113535,0.00272677,0.000970333,0.0050462,0.00112878,0.00377263,0.00112501,0.00345954,0.00141334,0.00150931,0.00153293,0.0015852,0.00105167,0.0011106,0.00244527,0.00103472,0.00102091,0.00195052,0.000970355,0.00665577,0.00103404,0.00095938,0.00131585,0.00121278,0.00160572,0.001978,0.00652399,0.0012108,0.00166986,0.00118925,0.00110253,0.000677738,0.000605271,0.00457137,0.00122503,0.0010724,0.00453228,0.00347503,0.00452558,0.00175663,0.0024548,0.00351635,0.000877649,0.0105009,0.00139789,0.000968595,0.0017515,0.119461,0.119113,0.119482,0.119557,0.119503,0.119692,0.119571,0.119525,0.119665,0.119652,0.119541,0.11964,0.119566,0.119601,0.119722,0.119538,0.119611,0.119313,0.119635,0.119689,0.119777,0.119389,0.119774,0.120663,0.119758,0.119708,0.119786,0.119674,0.119749,0.11969,0.119834,0.119816
0.119315,0.120387,0.120549,0.119727,0.120131,0.120592,0.121017,0.120157,0.119871,0.127722,0.120075,0.119657,0.119426,0.120253,0.12047,0.120006,0.119523,0.116915,0.120035,0.120586,0.119119,0.120289,0.120308,0.121142,0.120303,0.120398,0.119891,0.12034,0.119126,0.120208,0.120536,0.214581,0.119665,0.000660937,0.000690351,0.00325148,0.000702979,0.00131052,0.00100986,0.000884634,0.000831398,0.000798641,0.00106764,0.00114886,0.000923137,0.0010926,0.0013974,0.00102521,0.0029992,0.00112999,0.000844748,0.00112128,0.00170007,0.00102484,0.000976706,0.00195751,0.00192172,0.0031817,0.00126629,0.0012922,0.00115381,0.00217475,0.00111614,0.00135186,0.00143053,0.00112528,0.000888045,0.018304,0.00148936,0.00117239,0.0114799,0.00166472,0.00131217,0.00397429,0.00106661,0.00245405,0.0147217,0.000875941,0.00741268,0.00176015,0.00280833,0.00172813,0.00205406,0.00180952,0.00386523,0.00858129,0.00154302,0.00183562,0.000928234,0.00385143,0.00698128,0.00137381,0.00155653,0.00179101,0.00166518,0.000814641,0.00102562,0.001197,0.00128177,0.00132295,0.0011632,0.00216618,0.00998834,0.00119548,0.0096375,0.00169899,0.00102438,0.000918626,0.00049709,0.00130557,0.00103298,0.00121715,0.00150753,0.000910217,0.00668368,0.00164265,0.00759935,0.00208976,0.00141741,0.000860671,0.00166535,0.000846908,0.0008331,0.00695391,0.120406,0.120069,0.12017,0.120051,0.128691,0.12016,0.120186,0.12051,0.119412,0.120179,0.120158,0.119292,0.120231,0.119062,0.120287,0.12033,0.119894,0.120256,0.120406,0.120437,0.120341,0.120419,0.120377,0.120489,0.120471,0.120527,0.120619,0.120499,0.122822,0.120693,0.120664
0.119359,0.119756,0.116417,0.118194,0.119946,0.123349,0.12073,0.11942,0.120319,0.119887,0.120906,0.119674,0.120619,0.120877,0.12099,0.121275,0.121151,0.116781,0.121006,0.117114,0.120579,0.120884,0.121225,0.12089,0.122549,0.121018,0.12062,0.120695,0.120894,0.156989,0.121292,0.0812523,0.00118293,0.000662577,0.00209836,0.00133116,0.000596182,0.000649019,0.00110816,0.00100339,0.00106537,0.0491868,0.000665958,0.000820734,0.000896623,0.0010307,0.000957132,0.000923531,0.00116865,0.00400334,0.00126374,0.00107676,0.000945647,0.00225181,0.00219633,0.00104963,0.0010486,0.0010903,0.00101044,0.00109328,0.00568173,0.00100178,0.00183986,0.000874131,0.00184606,0.00218592,0.00117742,0.00112175,0.00770969,0.00120834,0.000913956,0.00105797,0.000904037,0.0122287,0.00197798,0.00119641,0.00232056,0.000907461,0.000897025,0.00131845,0.00157922,0.0011014,0.000777007,0.00175191,0.00112051,0.00111957,0.00338345,0.00248654,0.00750848,0.00104029,0.00115272,0.000889734,0.00153133,0.00473241,0.00115636,0.00353845,0.00121455,0.00140938,0.00154576,0.00125932,0.00141695,0.00119498,0.00104355,0.0012233,0.00274628,0.00106982,0.0015112,0.000901615,0.000447472,0.00104583,0.00120378,0.00273908,0.00184985,0.00158128,0.00096608,0.00287457,0.00339434,0.00281229,0.0012234,0.00198214,0.000752988,0.00130306,0.00118362,0.000859707,0.00327386,0.0182915,0.121398,0.121604,0.121308,0.121842,0.120905,0.120475,0.120469,0.120423,0.122019,0.120826,0.120603,0.122579,0.12224,0.122379,0.121027,0.122461,0.122113,0.120493,0.122167,0.122984,0.121184,0.122512,0.123162,0.123481,0.123167,0.123121,0.12425,0.123298,0.122801
0.120282,0.120346,0.121395,0.121401,0.121386,0.120805,0.120586,0.12069,0.12018,0.121791,0.121114,0.121287,0.12124,0.123886,0.122008,0.0953681,0.12148,0.120551,0.120802,0.121596,0.124898,0.126968,0.122306,0.121249,0.120769,0.121868,0.0981973,0.120848,0.121975,0.121551,0.122285,0.0065632,0.000640619,0.000460489,0.00553487,0.00124845,0.000798688,0.0059552,0.00386165,0.00105155,0.000939579,0.0013616,0.00134557,0.00104454,0.00114884,0.0240108,0.000856722,0.00120025,0.0029992,0.00104237,0.00117669,0.00129428,0.000900606,0.00102245,0.112797,0.00149048,0.00532858,0.00105872,0.00261323,0.00130098,0.00105999,0.00813201,0.00188825,0.00425066,0.000892342,0.00271182,0.00114935,0.00328058,0.00104299,0.00242231,0.0220714,0.0015839,0.000962266,0.00146537,0.00107717,0.00105705,0.00115436,0.00114516,0.00100869,0.0016561,0.0104462,0.00147401,0.00153596,0.00213327,0.00115928,0.00234177,0.000981236,0.00293834,0.00113963,0.00118753,0.00102361,0.00129529,0.0012024,0.00128918,0.00104117,0.00430111,0.00118611,0.00130345,0.00118964,0.00119493,0.00130836,0.00474426,0.00119983,0.00134306,0.00117442,0.00086938,0.00112055,0.00140466,0.000434456,0.00126868,0.00183759,0.00136964,0.0322197,0.00115127,0.00311524,0.00648129,0.00287549,0.00101113,0.00123632,0.00112692,0.00145197,0.00204312,0.00200249,0.00162512,0.0012099,0.00202371,0.0352621,0.123058,0.128858,0.127375,0.103081,0.125738,0.129892,0.129308,0.120807,0.128877,0.126743,0.128851,0.194505,0.128877,0.123096,0.12903,0.129233,0.144364,0.129559,0.122694,0.128537,0.129177,0.130107,0.129094,0.130033,0.129372,0.130075,0.129669,0.126967
0.122656,0.122599,0.123567,0.12278,0.123659,0.123572,0.123691,0.123444,0.12483,0.123182,0.124665,0.124719,0.124578,0.124896,0.124437,0.125643,0.135444,0.12486,0.124223,0.125203,0.124298,0.122272,0.127225,0.128268,0.122178,0.119999,0.127584,0.126738,0.122807,0.119999,0.0177916,0.000656162,0.000641659,0.000603459,0.000633432,0.00081926,0.00299218,0.000660573,0.000980776,0.00254428,0.00462192,0.00107673,0.00445946,0.000986839,0.00115075,0.00105648,0.00108233,0.00144709,0.00105561,0.000862871,0.00073157,0.00118818,0.00138902,0.00114274,0.000923489,0.0105689,0.00271735,0.00249408,0.00116656,0.00161677,0.00129744,0.00181932,0.00496094,1.53147,0.00112802,0.000936487,0.00128519,0.00124546,0.0013349,0.00117513,0.00176401,0.00422212,0.00160524,0.00122372,0.0273459,0.00124521,0.00199872,0.00104411,0.00109201,0.00133627,0.00120999,0.001333,0.0013752,0.000948839,0.00146106,0.00117097,0.00110125,0.00112286,0.00085767,0.00103698,0.000945713,0.000928062,0.00619402,0.00107899,0.000936478,0.005204,0.000903342,0.000970983,0.00467657,0.0021855,0.00122505,0.00107671,0.00218713,0.00251618,0.00136705,0.000917022,0.00114232,0.000775492,0.000479162,0.00151173,0.00733718,0.00409172,0.000991725,0.00425544,0.00993641,0.00132171,0.000741115,0.000940988,0.000794486,0.000652582,0.00225002,0.000783907,0.00105791,0.000760196,0.00105759,0.00277999,0.00626099,0.011186,0.144487,0.138964,0.143094,0.141007,0.152376,0.133171,0.143998,0.140774,0.140782,0.14116,0.13367,0.129009,0.139875,0.139958,0.138999,0.14052,0.145197,0.138896,0.140129,0.139384,0.138806,0.139499,0.138031,0.13893,0.137869,0.135794,0.139971
0.129719,0.13392,0.130804,0.126894,0.131362,0.130871,0.131053,0.130628,0.131571,0.126773,0.118279,0.132229,0.131371,0.132404,0.133235,0.132547,0.133679,0.146441,0.126856,0.12179,0.133941,0.141374,0.138944,0.136259,0.134927,0.138136,0.115876,0.121967,0.131971,0.00489865,0.000773837,0.000573985,0.000531142,0.000600415,0.000749018,0.000629812,0.000834416,0.000676954,0.0008197,0.000795593,0.0018685,0.00168639,0.00105002,0.000828502,0.000746288,0.000880408,0.00122034,0.015556,0.00114646,0.00117042,0.000886651,0.00144971,0.00121502,0.00546751,0.00129638,0.00130067,0.00427234,0.00099873,0.000776495,0.00107051,0.00143056,0.00107087,0.00218547,0.00113183,0.00156044,0.00127761,0.00109651,0.00158939,0.00144924,0.00146879,0.000981069,0.00104791,0.00110303,0.000975244,0.00215815,0.0041534,0.0020376,0.00212141,0.00253848,0.00122249,0.00886372,0.00348568,0.00118765,0.0010717,0.00112572,0.0039033,0.00604064,0.00195003,0.00120454,0.00121016,0.00145486,0.00164581,0.00124403,0.000899942,0.00562989,0.000832736,0.00310642,0.00106281,0.00319728,0.000957943,0.0156011,0.00175782,0.000966518,0.00122406,0.000873998,0.00378005,0.00157608,0.00106171,0.000500329,0.00237736,0.00168242,0.00231667,0.00226618,0.00389999,0.00119184,0.00111045,0.00155488,0.00145811,0.000905349,0.00167844,0.00205053,0.00571559,0.00191283,0.00294014,0.00158586,0.00119557,0.00106034,0.000503971,0.10261,0.162536,0.164524,0.223365,0.148338,0.172285,0.147462,0.155416,0.155702,0.150101,0.147921,0.152672,0.15291,0.148441,0.152155,0.152064,0.151549,0.149561,0.149386,0.150209,0.149266,0.150304,0.144622,0.148964,0.146646,0.128656,0.147849
0.142127,0.169204,0.161874,0.140226,0.141027,0.13992,0.140117,0.141204,0.141201,0.141237,0.145275,0.102305,0.131102,0.141104,0.143718,0.144186,0.138893,0.14593,0.143673,0.148651,0.149621,0.150508,0.152278,0.119352,0.155262,0.158493,0.114158,0.16876,0.0639781,0.000624955,0.00130506,0.00283752,0.00101461,0.000483542,0.00107197,0.000582184,0.000893989,0.00254796,0.000990781,0.00436363,0.00107304,0.000864274,0.00172607,0.000853003,0.00143684,0.00212167,0.00108434,0.000926747,0.00119473,0.000987558,0.00119555,0.000955805,0.00108612,0.00116059,0.00289855,0.0038915,0.00119869,0.00102007,0.00209179,0.000977033,0.00116968,0.00117396,0.00115157,0.00114621,0.00105289,0.00115528,0.00673439,0.00115932,0.00123006,0.00202314,0.000959914,0.00178669,0.00137528,0.00228261,0.000896595,0.00155793,0.00216387,0.00105844,0.00250051,0.00116803,0.0010345,0.00195438,0.00116467,0.00103881,0.00669394,0.00146526,0.00149272,0.00122164,0.0376465,0.00126055,0.00216952,0.00172507,0.00106928,0.0011026,0.0032477,0.0038094,0.0012993,0.00384409,0.00119289,0.00125694,0.00392578,0.00145679,0.00152326,0.00107092,0.00114697,0.00178333,0.00109325,0.00121731,0.00048822,0.0010741,0.000838164,0.00197635,0.00117136,0.00106874,0.0011828,0.00134778,0.000911864,0.00166644,0.00120756,0.00138528,0.00232607,0.00191045,0.000766965,0.00481847,0.000905153,0.00091945,0.00101413,0.000917343,0.0776003,0.170029,0.163164,0.0738006,0.180786,0.165342,0.160683,0.172018,0.141795,0.161368,0.160557,0.160933,0.161427,0.160699,0.162721,0.159317,0.149428,0.157876,0.158017,0.157309,0.157922,0.155806,0.156053,0.155264,0.154453,0.154294,0.152897
0.147095,0.172445,0.153331,0.150486,0.142151,0.151399,0.150076,0.151709,0.164592,0.149743,0.152995,0.153644,0.122859,0.156251,0.156156,0.142126,0.158763,0.162634,0.15241,0.157835,0.155813,0.163179,0.160756,0.160429,0.157063,0.170328,0.185274,0.133966,0.0370072,0,0.000794769,0.00309814,0.000621133,0.000518659,0.00108669,0.0015865,0.000734018,0.000654419,0.000816889,0.000910339,0.00069913,0.000952725,0.00074399,0.00524597,0.00101772,0.000753321,0.00079886,0.00105389,0.0039176,0.00105056,0.00117127,0.00206409,0.00148949,0.00093997,0.00673467,0.00181615,0.00117984,0.00191709,0.00116803,0.000910261,0.00107797,0.00106985,0.000937365,0.00121765,0.00203993,0.00138514,0.00302613,0.00211504,0.00123123,0.00075646,0.00114093,0.00113236,0.000849255,0.00103324,0.00115172,0.00137549,0.00191184,0.00117996,0.00120839,0.000973982,0.00120048,0.00160648,0.00315325,0.00144598,0.00347982,0.000858621,0.00273512,0.00106752,0.000950996,0.00228898,0.00524476,0.00129567,0.00334419,0.00124332,0.00150537,0.00117983,0.00296323,0.0010538,0.00186902,0.0742579,0.00144799,0.0366217,0.00121305,0.000890362,0.00119868,0.00120663,0.0013394,0.000802587,0.000480585,0.00144576,0.00122711,0.00119426,0.00281713,0.00149349,0.00112924,0.00401343,0.00114237,0.00152985,0.00136521,0.0019397,0.00272823,0.00603601,0.000878549,0.000790357,0.0022002,0.00474761,0.000671703,0.00173248,0.0839219,0.175635,0.157498,0.15942,0.167323,0.165087,0.164893,0.163248,0.169005,0.165017,0.163424,0.18229,0.165992,0.167357,0.164702,0.160885,0.161585,0.16194,0.162364,0.162363,0.16253,0.161298,0.157931,0.160264,0.159845,0.159684,0.159387
0.155933,0.154801,0.156383,0.133815,0.157775,0.148217,0.159903,0.151364,0.160438,0.160561,0.16117,0.159042,0.15762,0.163414,0.166879,0.1673,0.165919,0.181678,0.163424,0.167495,0.162029,0.176256,0.159742,0.171606,0.165428,0.176355,0.195809,0.173073,0,0.00118924,0.00125093,0.000532262,0.000635024,0.000628234,0.000602466,0.0188833,0.000635639,0.0009719,0.00390258,0.000589233,0.00265602,0.00117628,0.000846597,0.00164157,0.000664874,0.000702048,0.00310027,0.00126423,0.00112999,0.0012658,0.00104177,0.000992368,0.00143228,0.00137708,0.00225232,0.00105045,0.00109944,0.000925468,0.00125314,0.00316371,0.0201626,0.00125259,0.00148466,0.034822,0.0025626,0.0012219,0.00160266,0.00147017,0.00124417,0.00127768,0.00252822,0.0017043,0.00109443,0.00191711,0.00102378,0.00163215,0.00216447,0.00495291,0.00143818,0.00831475,0.000971307,0.00141338,0.00144712,0.00105783,0.000979108,0.00105577,0.00126589,0.000879719,0.0453307,0.00122692,0.000954077,0.00155799,0.0099265,0.00102258,0.00108484,0.00165938,0.00475561,0.00132265,0.00114994,0.00115644,0.00310597,0.00290522,0.0015735,0.00350895,0.00518223,0.00116063,0.000867785,0.00100464,0.000640847,0.00170141,0.00123259,0.00102641,0.000971832,0.00182632,0.00201261,0.00132892,0.000948161,0.000839925,0.00112976,0.00304695,0.00189106,0.00295218,0.00232008,0.00152468,0.00122566,0.00378973,0.000964605,0.00086777,0.0101128,0.124761,0.160491,0.194033,0.17072,0.169324,0.161411,0.166904,0.169741,0.165387,0.16514,0.163874,0.163913,0.162856,0.163085,0.164419,0.163478,0.162486,0.162488,0.162207,0.162885,0.163001,0.161806,0.162148,0.161934,0.1617,0.16106
0.164847,0.159969,0.161162,0.164925,0.161065,0.161908,0.163516,0.161597,0.162344,0.162516,0.161345,0.162715,0.161182,0.162139,0.163444,0.163831,0.166955,0.166008,0.160307,0.162766,0.164573,0.163846,0.185435,0.16533,0.161301,0.160221,0.140102,0.0663518,0.000646557,0.00119298,0.000811535,0.000671552,0.000730304,0.000445648,0.000728743,0.00151114,0.0433284,0.000687136,0.00150049,0.00079973,0.00124409,0.00101618,0.00100585,0.00451802,0.00111401,0.000957659,0.00204401,0.00220122,0.00116802,0.00161718,0.00293567,0.00100612,0.00134591,0.00382971,0.00414665,0.00963312,0.00102944,0.0019165,0.00102398,0.002675,0.000821036,0.00109961,0.00144815,0.00194935,0.00211679,0.00126634,0.00125439,0.00122802,0.00114579,0.0135334,0.00112348,0.00345308,0.00113278,0.00106446,0.000920549,0.00117901,0.00113053,0.00130754,0.00238283,0.0019995,0.00117479,0.00312628,0.00331453,0.00139187,0.00136723,0.00108562,0.00119726,0.222398,0.00475063,0.00116064,0.00306441,0.00480261,0.0010247,0.00089874,0.00230341,0.00116933,0.00686842,0.000978011,0.00133002,0.000888684,0.00614736,0.00104679,0.00122674,0.00100497,0.00102825,0.00353562,0.00232257,0.00130988,0.000417416,0.00116127,0.00121454,0.0013159,0.00190734,0.00188517,0.00100172,0.000933278,0.00102205,0.00110169,0.00105486,0.00107187,0.00147828,0.00110891,0.00201805,0.00165806,0.00114803,0.000947329,0.0012944,0.000843389,0.0117536,0.091725,0.159256,0.166717,0.16174,0.158916,0.165507,0.152811,0.168034,0.166265,0.164297,0.164544,0.167545,0.169069,0.163096,0.163719,0.163728,0.163634,0.163935,0.163478,0.15497,0.162851,0.162395,0.151112,0.162333,0.162253,0.161856
0.161434,0.161116,0.161673,0.161158,0.161666,0.16168,0.162193,0.163016,0.163112,0.162656,0.164484,0.163746,0.162607,0.163706,0.163015,0.164493,0.1665,0.166183,0.168686,0.162088,0.163651,0.160117,0.162399,0.168514,0.160713,0.156096,0.118915,0.0423828,0.0690212,0,0.00167388,0.000718094,0.000646665,0.000641742,0.000632656,0.000801972,0.0154858,0.000749688,0.00243824,0.000811615,0.00233053,0.000896593,0.00193701,0.000659501,0.000977462,0.00584324,0.000956125,0.00105761,0.00143599,0.00102549,0.000775844,0.00146309,0.0011873,0.00396978,0.00150154,0.00205859,0.00110748,0.00124051,0.000830072,0.00115069,0.00375316,0.00130309,0.00110724,0.00114052,0.00136488,0.00167733,0.00106179,0.00140613,0.00987879,0.00117401,0.00105119,0.0010376,0.000832176,0.000796898,0.00100097,0.00149111,0.000791938,0.00153378,0.00433721,0.00192888,0.00142768,0.000803863,0.00135327,0.00355183,0.00123883,0.00115857,0.000815608,0.00313828,0.00133129,0.017247,0.00149664,0.00104366,0.00317402,0.000948895,0.00122323,0.00194381,0.00280381,0.00197903,0.00233374,0.00113002,0.0017428,0.00113238,0.00349131,0.00105169,0.00139084,0.000855334,0.00426024,0.00153083,0.00067879,0.00363892,0.00218534,0.00107499,0.00166877,0.00103126,0.0029238,0.0037186,0.00140557,0.00883177,0.000887547,0.00111823,0.00213003,0.000956207,0.00288723,0.0184851,0.262418,0.00222874,0.00151431,0.00139688,0.0220773,0.130288,0.139319,0.161398,0.162372,0.168077,0.166781,0.1624,0.162058,0.164424,0.165796,0.164662,0.165272,0.165047,0.164582,0.164695,0.165569,0.16441,0.164037,0.161842,0.163334,0.164781,0.163374,0.163225,0.164241,0.163179,0.162933
0.16156,0.156198,0.1629,0.160523,0.163001,0.162191,0.163497,0.162196,0.161606,0.163506,0.165328,0.165588,0.164367,0.163954,0.163735,0.162419,0.16352,0.164637,0.172329,0.163428,0.161556,0.173291,0.16142,0.161056,0.161794,0.140892,0.0870259,0.0295648,0.000456168,0.000750255,0.000871359,0.000364217,0.000664857,0.000604043,0.000713788,0.0019504,0.00136779,0.00169132,0.000942623,0.00189823,0.000789686,0.00108634,0.0019823,0.000840527,0.00202278,0.00322057,0.0462385,0.000809607,0.00461659,0.00377348,0.00192675,0.00148399,0.00122493,0.000932867,0.00309572,0.00238426,0.00221186,0.00148801,0.000830725,0.00125322,0.00100775,0.00135009,0.00529145,0.00657562,0.00125316,0.000814642,0.0011382,0.00251108,0.00133383,0.00160207,0.000971231,0.00539954,0.000827994,0.00129131,0.00264213,0.00168755,0.0010744,0.0011559,0.00149725,0.00145047,0.0011365,0.00704188,0.00196003,0.00765195,0.0010052,0.00410855,0.00117321,0.00294017,0.00323446,0.00103905,0.00110145,0.00133909,0.0129311,0.00112872,0.00122499,0.000854984,0.0016409,0.00149917,0.000856691,0.00123601,0.00118672,0.00160205,0.00131965,0.00617073,0.00185042,0.00306453,0.000813649,0.00146646,0.000688111,0.00141125,0.000809005,0.00257246,0.03271,0.00158812,0.00162513,0.00372148,0.00152497,0.000914747,0.00231309,0.00168947,0.00274205,0.00522778,0.0040836,0.00879565,0.0105226,0.000924953,0.00913819,0.000551316,0.00694616,0.0404034,0.105231,0.154303,0.193868,0.171879,0.16391,0.162061,0.164573,0.165219,0.15947,0.164485,0.164543,0.165293,0.165576,0.164449,0.165341,0.164075,0.16393,0.164302,0.164231,0.164032,0.163493,0.163668,0.163626,0.165319,0.163475
0.16453,0.162311,0.162673,0.162538,0.163402,0.1633,0.163943,0.164551,0.164171,0.164413,0.164108,0.163553,0.163314,0.164828,0.164501,0.162183,0.164573,0.165091,0.163856,0.16219,0.16228,0.162203,0.164917,0.15962,0.150295,0.11637,0.0772718,0.00067299,0.000945903,0.000587819,0.000363132,0.00134259,0.000586963,0.000425797,0.329892,0.000540102,0.000546063,0.00166267,0.00100777,0.000772065,0.00104644,0.00161843,0.000889362,0.00174012,0.000844788,0.00290574,0.00105075,0.000903804,0.00120801,0.00994474,0.00191248,0.00106581,0.00136329,0.00129712,0.00158338,0.000920642,0.00156911,0.0175006,0.00131654,0.00107897,0.0016941,0.00299045,0.00232963,0.00755863,0.000861389,0.00110304,0.00248055,0.00105042,0.0014059,0.00101695,0.0012515,0.000859609,0.0163094,0.00171927,0.000843063,0.0010256,0.00114113,0.0025319,0.0011707,0.0116106,0.00113778,0.00704188,0.00109321,0.000960835,0.00159522,0.00149579,0.0046643,0.00125409,0.00342996,0.000967788,0.00125884,0.00116221,0.00115534,0.0021239,0.00108275,0.00219331,0.00104831,0.00787681,0.00263244,0.00114942,0.00138011,0.00165937,0.00137602,0.00751863,0.0110021,0.00508529,0.0010093,0.00554364,0.00108192,0.00176333,0.00410769,0.00104497,0.0010917,0.00114646,0.00168958,0.00111841,0.00184298,0.00136299,0.00456854,0.00151351,0.00140457,0.00303387,0.00239029,0.00139293,0.00311696,0.00195031,0.00136971,0.000947667,0.0101802,0.0321742,0.0943758,0.156535,0.160704,0.163711,0.165332,0.163288,0.165898,0.162042,0.162665,0.164011,0.163032,0.163861,0.165138,0.164703,0.166727,0.164513,0.164847,0.164619,0.164912,0.164409,0.165338,0.164047,0.163177,0.164005,0.164036
0.162637,0.162669,0.163155,0.163818,0.163431,0.164351,0.163826,0.164793,0.16318,0.162855,0.163971,0.163433,0.163838,0.164297,0.163654,0.163118,0.163666,0.163333,0.160623,0.163435,0.161254,0.165162,0.160303,0.155424,0.134165,0.0993909,0.0553465,0.0181233,2.06946e-13,0.000674847,0.000701577,0.0023952,0.000640324,0.000442159,0.00127609,0.00139993,0.000574685,0.000740496,0.000799138,0.000737967,0.00147598,0.000894642,0.000827658,0.00189883,0.00583228,0.00416639,0.00180979,0.0102685,0.00576323,0.000963102,0.00118742,0.00118371,0.0089202,0.00158372,0.00150258,0.00114238,0.00208071,0.00324064,0.000994448,0.000920358,0.0011136,0.00291976,0.00116548,0.00850085,0.00161173,0.0248305,0.00154526,0.00126886,0.00114297,0.00143468,0.00187948,0.00118303,0.00104183,0.000829381,0.0012624,0.00112212,0.00298851,0.00187009,0.00159003,0.00372322,0.00176643,0.00103676,0.00109813,0.00245005,0.00104966,0.000965819,0.000966744,0.00310087,0.000891976,0.000851558,0.00098528,0.00443487,0.00126252,0.016521,0.00186749,0.00092895,0.00201946,0.00202577,0.00141738,0.00282277,0.00175496,0.0101844,0.00126717,0.00108166,0.0113477,0.000800632,0.00188202,0.00118095,0.000450987,0.000834947,0.00114518,0.00118,0.00167736,0.015922,0.00120447,0.00124982,0.00486974,0.0015952,0.00172874,0.00232806,0.0015587,0.000923719,0.00126064,0.00109792,0.000834181,0.00969972,0.000900836,0.000956294,0.00651877,0.0259929,0.0783579,0.121836,0.153005,0.162408,0.162753,0.164104,0.16441,0.163163,0.165298,0.164238,0.164244,0.164448,0.175933,0.162357,0.164287,0.164681,0.1646,0.164722,0.166063,0.164659,0.164919,0.164706,0.165202,0.16454,0.164307
0.163193,0.162789,0.163262,0.163492,0.162506,0.163329,0.165228,0.164167,0.163677,0.164283,0.164405,0.164416,0.165145,0.163045,0.162708,0.163088,0.163488,0.162644,0.161794,0.161271,0.160438,0.163798,0.162778,0.144569,0.118837,0.0856825,0.0420969,0.0124485,2.06946e-13,0.000566394,0.000583707,0.000564247,0.00089948,0.000379948,0.000747947,0.000646657,0.000663865,0.000567421,0.000914326,0.000866698,0.000982157,0.000956919,0.00108929,0.00117861,0.00127567,0.00193015,0.00536144,0.00108518,0.000764093,0.00118514,0.00136824,0.00136735,0.00237797,0.00629516,0.000919922,0.00105529,0.000930423,0.0038317,0.0037981,0.0023724,0.00175383,0.000971824,0.0108881,0.000971834,0.00237838,0.00138196,0.00131799,0.00104643,0.000939059,0.0009996,0.00524508,0.000998835,0.00115559,0.00225056,0.000934019,0.0176704,0.00126348,0.00297059,0.00228353,0.00129487,0.00111746,0.00103176,0.00172514,0.001268,0.00148202,0.00709851,0.0013293,0.00104366,0.00104543,0.00164099,0.00950242,0.000947994,0.00271616,0.00214857,0.00771101,0.00138905,0.00119549,0.00103992,0.00821228,0.00135402,0.00113012,0.00423007,0.000852113,0.00118005,0.00216548,0.0417147,0.00117692,0.00148821,0.0005919,0.00149144,0.00170492,0.00109257,0.00137851,0.00115074,0.00115182,0.000837165,0.00134872,0.00191697,0.00150842,0.000778425,0.00261546,0.00370128,0.00145488,0.000966781,0.00246967,0.000676609,0.00113846,0.00100669,0.000565162,0.0258137,0.0612858,0.114965,0.142956,0.160072,0.159084,0.164019,0.166304,0.162728,0.148156,0.164128,0.159357,0.164341,0.164076,0.164091,0.169172,0.164189,0.165234,0.164639,0.158891,0.16549,0.163665,0.166432,0.164522,0.164687,0.164695
0.163317,0.163167,0.163345,0.163236,0.164244,0.164663,0.164619,0.163876,0.163855,0.16377,0.163719,0.164278,0.163334,0.162799,0.164471,0.1582,0.163438,0.16162,0.16153,0.16452,0.158573,0.159566,0.156229,0.138944,0.10203,0.0699825,0.0334957,0.00325698,0.000890231,0.000495192,0.000596887,0.00144974,0.00072284,0.000549758,0.000701961,0.000695793,0.00105727,0.00981754,0.00212171,0.0008239,0.00116397,0.000871928,0.000896631,0.00156452,0.00275534,0.00115067,0.0015018,0.0144128,0.00146548,0.00138035,0.00507086,0.00110015,0.00119115,0.00104187,0.00093586,0.00141034,0.00131364,0.00147388,0.00752231,0.00115926,0.000774722,0.0010154,0.00112217,0.00097133,0.00136315,0.00112351,0.00143554,0.00144708,0.00310969,0.00112266,0.00210719,0.00169345,0.00476906,0.00193108,0.00117688,0.00136412,0.00106801,0.00116718,0.00109998,0.00171639,0.013636,0.00204884,0.00181514,0.000871017,0.00184687,0.0011963,0.00108728,0.00121699,0.00855908,0.00184161,0.00105864,0.00109331,0.00104363,0.0013228,0.00158711,0.000976224,0.00208221,0.00124668,0.00139681,0.00129034,0.00131757,0.0010096,0.00283584,0.00252599,0.00222589,0.00125589,0.0011396,0.00200462,0.000525693,0.00314003,0.00619496,0.000897687,0.00658298,0.00123538,0.0010739,0.0282913,0.00285635,0.000996424,0.0135923,0.000905303,0.00112904,0.00146353,0.000894666,0.00364724,0.00119688,0.00147831,0.00242564,0.000755847,0.00346137,0.0196188,0.0538747,0.0915852,0.129472,0.155227,0.164049,0.160192,0.160691,0.163831,0.162834,0.16417,0.163031,0.166055,0.164033,0.163587,0.163543,0.163633,0.164773,0.16436,0.164442,0.165778,0.16443,0.165427,0.164971,0.164492,0.16449
0.163226,0.162912,0.163339,0.164696,0.164319,0.164067,0.164176,0.163464,0.163945,0.163135,0.163578,0.164452,0.164067,0.163545,0.163084,0.164597,0.157281,0.163897,0.161825,0.160431,0.160695,0.154781,0.139439,0.119527,0.0718678,0.0304773,0.0274617,0.00692663,0.00126393,0.0014689,0.00116995,0.00386886,0.0020018,0.000636645,0.000545925,0.000683036,0.00140248,0.00136506,0.000909729,0.000934814,0.000825262,0.000929769,0.000713003,0.00110744,0.00171777,0.0170561,0.00220194,0.000847567,0.000862942,0.00443163,0.00155302,0.00130608,0.0021316,0.00141097,0.00149365,0.00273662,0.00254936,0.00136027,0.00215247,0.00105832,0.000823765,0.00116461,0.00264193,0.00118403,0.00101694,0.0022281,0.00133555,0.00169204,0.00114664,0.0183518,0.000873509,0.000925115,0.00106636,0.00114797,0.00226729,0.00116058,0.00135864,0.00886818,0.0059984,0.00179762,0.00158564,0.00722779,0.0012142,0.00157347,0.00465241,0.00171619,0.00505922,0.00100917,0.000964266,0.000906094,0.00281376,0.0015137,0.00308715,0.00115699,0.00238431,0.00125813,0.00180627,0.00128076,0.0010039,0.00115204,0.00126916,0.00172736,0.0011479,0.00187585,0.00257064,0.00166966,0.00398661,0.00184114,0.000488461,0.00140767,0.00115074,0.00115636,0.00104682,0.00111828,0.00298142,0.00247831,0.0013996,0.0038717,0.00266131,0.00158721,0.00130949,0.00228395,0.000807142,0.00117402,0.00108782,0.00149289,0.00136912,0.000640044,0.00145284,0.0167046,0.0417951,0.0796294,0.124922,0.146579,0.158814,0.161554,0.160249,0.1612,0.167577,0.162473,0.162697,0.163489,0.163899,0.164476,0.163647,0.162971,0.16324,0.16594,0.163974,0.164611,0.165994,0.17106,0.164601,0.164384,0.164826
0.163126,0.163068,0.169382,0.163506,0.164142,0.163357,0.163738,0.164007,0.163218,0.163958,0.163805,0.163871,0.162039,0.163588,0.161831,0.162519,0.162121,0.163607,0.161057,0.162488,0.157756,0.146625,0.131402,0.103925,0.0809532,0.0617704,0.0239461,0.0119175,0.00196516,0.000345282,0.00121802,0.000648573,0.000795882,0.000462355,0.00446825,0.000604601,0.000899905,0.00270502,0.000787765,0.000778287,0.000655296,0.000817341,0.000857175,0.00227215,0.00128027,0.000866761,0.000843654,0.0023597,0.000999334,0.00119014,0.00128457,0.00532271,0.000907423,0.00131127,0.00096135,0.00103126,0.00108607,0.00092632,0.0658219,0.00120265,0.000969699,0.00128784,0.0156542,0.00559665,0.00409071,0.00159221,0.0012749,0.00625172,0.00646773,0.00198756,0.00148307,0.00361599,0.000963195,0.00269601,0.00206766,0.00109928,0.00114356,0.00461958,0.00109394,0.00140133,0.000982243,0.000932085,0.00165636,0.00148306,0.00125461,0.000990451,0.00321537,0.00289757,0.0122701,0.000987097,0.000932019,0.00120143,0.0255813,0.00748355,0.000901041,0.00120063,0.0022282,0.00406796,0.00542724,0.0019001,0.001641,0.00114202,0.000988751,0.00125096,0.00257423,0.00128051,0.00339837,0.000955994,0.000389883,0.00064021,0.00102818,0.00110654,0.00224776,0.00115215,0.0182318,0.000773807,0.00461541,0.00115658,0.00128342,0.00142246,0.00126211,0.00385794,0.00148636,0.00129822,0.000934067,0.00115894,0.000953724,0.00166351,0.00145365,0.0186813,0.0346599,0.0715923,0.104493,0.134044,0.150613,0.159649,0.159554,0.163675,0.169405,0.162417,0.163012,0.163002,0.165213,0.162637,0.164547,0.16436,0.0857392,0.164132,0.164007,0.161307,0.164368,0.164688,0.164717,0.164704,0.164705
0.163108,0.163741,0.163287,0.162731,0.162993,0.163665,0.162841,0.163918,0.163229,0.161797,0.162786,0.163022,0.162905,0.162528,0.161565,0.163608,0.160849,0.162444,0.160583,0.159958,0.151402,0.138234,0.122242,0.0941158,0.0712163,0.0458911,0.0163496,0.00344174,0.000696837,0.00232901,0.000481609,0.000602998,0.000643381,0.000930651,0.00180307,0.00169647,0.000682873,0.000765251,0.000825994,0.00115494,0.00116225,0.00104984,0.00106678,0.0019493,0.000990724,0.00367101,0.00104715,0.00446047,0.00417747,0.00264683,0.000907409,0.0010982,0.000899969,0.0441578,0.00164044,0.00102008,0.00110522,0.00875609,0.00131388,0.00170391,0.00370071,0.00162731,0.00114752,0.00103867,0.00142159,0.00131667,0.000959171,0.00104577,0.000921061,0.00591065,0.000875035,0.00114288,0.00100517,0.00621093,0.000891338,0.00495947,0.00130657,0.00142547,0.00436447,0.00103395,0.00113239,0.00184105,0.00183008,0.00101256,0.00110805,0.0023607,0.00125842,0.00104454,0.00100832,0.0161046,0.00109945,0.00656767,0.00115208,0.000894597,0.00603777,0.150767,0.00106675,0.00151483,0.00128992,0.00155177,0.00584633,0.00090253,0.00287853,0.00174592,0.00175387,0.00169837,0.00111011,0.000777136,0.000468383,0.00103999,0.00261342,0.00168344,0.00463962,0.00132687,0.00107624,0.0014023,0.00299481,0.00205791,0.00117034,0.00168436,0.00115508,0.00140038,0.0276084,0.0081244,0.00121135,0.00141174,0.00182375,0.00123645,0.00274089,0.0140353,0.0327602,0.0566806,0.0930427,0.127031,0.144677,0.158174,0.161094,0.162913,0.165514,0.161979,0.162208,0.162832,0.163348,0.162897,0.163363,0.164296,0.164766,0.165725,0.163331,0.182946,0.164143,0.164346,0.164573,0.164607,0.164769
0.163426,0.163323,0.163305,0.163107,0.163117,0.162726,0.162802,0.163142,0.162712,0.16223,0.16347,0.162939,0.162993,0.162147,0.162989,0.161926,0.159915,0.163408,0.16074,0.157428,0.144417,0.128036,0.111266,0.068159,0.0596831,0.0302872,0.0171962,0.00388578,0.00626831,0.000885698,0.000427308,0.00316008,0.000528541,0.000369537,0.000788303,0.00340974,0.00147867,0.00114974,0.000978782,0.00164368,0.000719949,0.000788331,0.00113161,0.00122171,0.000893458,0.000963969,0.000922412,0.000933868,0.00127564,0.00111659,0.00412704,0.00113006,0.000739431,0.00584586,0.00113204,0.00106083,0.0145003,0.00163736,0.00340365,0.0033307,0.000854394,0.00151543,0.00162456,0.0012546,0.00133308,0.00389019,0.00678634,0.0018834,0.00117941,0.00126735,0.00177206,0.00151779,0.0288115,0.00735451,0.00115064,0.0204961,0.00146178,0.00166969,0.00515946,0.00100546,0.00093298,0.00405319,0.000977572,0.00210932,0.0106614,0.00100958,0.00158581,0.00120499,0.00613338,0.000993917,0.00127788,0.000970347,0.00149776,0.00117214,0.00130372,0.000919673,0.00143053,0.00119076,0.00888844,0.0014489,0.00115031,0.0028307,0.0015316,0.00113917,0.00196731,0.00195776,0.00149574,0.00236596,0.001396,0.00117234,0.000882306,0.0018406,0.00115982,0.00132687,0.00117196,0.00120471,0.000775443,0.00117169,0.00120686,0.00248017,0.000859411,0.0011268,0.00119801,0.00123339,0.00238848,0.00131763,0.000977317,0.000770787,0.00143902,0.0114167,0.0257023,0.0544147,0.0821444,0.116861,0.176817,0.153716,0.160191,0.164217,0.161533,0.161101,0.161475,0.162046,0.164903,0.163599,0.163681,0.163801,0.164206,0.164829,0.164734,0.163028,0.164093,0.164281,0.164475,0.164486,0.164319
0.161797,0.163255,0.163103,0.163043,0.162842,0.162464,0.16375,0.172668,0.163634,0.162644,0.162973,0.162986,0.164313,0.162171,0.160621,0.160432,0.161935,0.161228,0.157167,0.148881,0.136024,0.123025,0.0983941,0.0770642,0.0550393,0.0306368,0.0164978,0.0041966,0.00167339,0.000495032,0.00124868,0.00472288,0.00232273,0.000597953,0.00093179,0.000493661,0.00180188,0.000656215,0.00766979,0.00166106,0.00162265,0.00151624,0.00160161,0.00177938,0.00106098,0.00125946,0.00410751,0.000829597,0.00155027,0.00239795,0.0016572,0.000893451,0.00152853,0.00198405,0.000924523,0.00185762,0.0063465,0.00147038,0.00106734,0.00108161,0.00114733,0.00140642,0.0015051,0.000812293,0.00086296,0.00229081,0.000888083,0.00118736,0.00129636,0.00107856,0.00120804,0.00335392,0.00163148,0.00117876,0.00104871,0.00107081,0.00106083,0.00810028,0.00370421,0.0174977,0.000802582,0.000953485,0.00164648,0.00103711,0.00125659,0.0010804,0.00112954,0.00138034,0.00134682,0.00275128,0.00574572,0.00668219,0.00129035,0.00168031,0.00189148,0.000867381,0.00118144,0.00260587,0.00108026,0.00345713,0.000809011,0.000988147,0.00108144,0.00102366,0.00392917,0.00150563,0.0033297,0.00103539,0.00111162,0.000834947,0.00106228,0.00155678,0.000959461,0.00190637,0.00238069,0.00125681,0.00154151,0.00103568,0.00116777,0.000783707,0.00123441,0.000813027,0.00910481,0.00174307,0.00187219,0.00123442,0.000971466,0.000855658,0.00166416,0.00828361,0.025574,0.0462449,0.0457502,0.101273,0.125673,0.147355,0.15556,0.161429,0.160981,0.161527,0.160254,0.161247,0.162656,0.163643,0.162454,0.163085,0.163824,0.163944,0.164213,0.164942,0.163819,0.164081,0.164098,0.164305,0.164418
0.162733,0.162829,0.162805,0.16477,0.162519,0.162416,0.164168,0.162824,0.16202,0.161638,0.162406,0.165448,0.16233,0.160736,0.16542,0.161181,0.161542,0.158752,0.151598,0.143679,0.127392,0.115959,0.0902246,0.0710736,0.0486052,0.0282234,0.0124902,0.0030826,0.00105923,0.00116813,0.000401477,0.000527885,0.000454929,0.000604405,0.000633283,0.000760567,0.000456883,0.000755512,0.000781772,0.000730599,0.00128778,0.000841002,0.00094583,0.00104862,0.0015105,0.000775655,0.00117062,0.000915221,0.00110805,0.00119598,0.00104483,0.000998039,0.000832202,0.00106484,0.000818991,0.000807102,0.00101242,0.00103409,0.00153012,0.00104681,0.000860638,0.00130633,0.000809688,0.00132438,0.00124325,0.00110145,0.00118456,0.00117953,0.00215291,0.00117995,0.00107364,0.00134585,0.00124839,0.00165814,0.00177926,0.000893965,0.00103806,0.00147497,0.00129065,0.0665817,0.00098315,0.00186669,0.000991434,0.000901973,0.00553773,0.00138737,0.00192447,0.00295464,0.00104154,0.00121982,0.00106684,0.00116899,0.000933465,0.00135617,0.00108428,0.00170215,0.00248771,0.00132212,0.00123881,0.00806887,0.00105827,0.00192044,0.00133225,0.00105709,0.00217031,0.00117895,0.00115158,0.00296323,0,0.000733321,0.00155928,0.00205755,0.00232706,0.00120174,0.00108845,0.00113529,0.00114679,0.065689,0.00124592,0.00111837,0.00112597,0.00108477,0.00207671,0.00303753,0.00105703,0.00138336,0.00668308,0.000740895,0.00163305,0.00738834,0.0208453,0.0374141,0.0705012,0.0962973,0.117765,0.139444,0.153689,0.157133,0.522979,0.163124,0.161773,0.162105,0.161713,0.162729,0.162856,0.162352,0.163406,0.164459,0.163707,0.163111,0.163598,0.163684,0.163619,0.164129,0.164309
0.162606,0.162343,0.16257,0.162525,0.16176,0.162385,0.161484,0.161646,0.162201,0.161975,0.161674,0.161501,0.161911,0.162056,0.16136,0.1605,0.159559,0.154539,0.147661,0.134885,0.12263,0.133765,0.0834744,0.064894,0.0438345,0.0249791,0.014727,0.00324021,0.00239275,0.000365515,0.000611263,0.000635817,0.00148044,0.000673406,0.0010037,0.00376984,0.000466704,0.00135537,0.000773814,0.00148124,0.000921271,0.00171899,0.000995287,0.0010909,0.0357017,0.00127067,0.000976973,0.00084049,0.0172582,0.00142688,0.0198686,0.00104713,0.00101587,0.00139735,0.000839389,0.00193256,0.00607421,0.00121527,0.000966838,0.00289322,0.00113824,0.00120508,0.0011163,0.00140474,0.00133882,0.0042824,0.0257999,0.00119795,0.00318999,0.0010186,0.00118469,0.00128736,0.00116604,0.000875944,0.00110559,0.00220597,0.00188535,0.00496389,0.00130145,0.000937324,0.00158674,0.00129798,0.00262391,0.0017642,0.016207,0.00174858,0.00131747,0.000845327,0.00141983,0.00229135,0.00117361,0.00128084,0.00111091,0.000768475,0.00296821,0.00122082,0.00158743,0.00176097,0.00177818,0.00111249,0.00141632,0.00497898,0.00131764,0.00134121,0.00158431,0.00113691,0.00130455,0.00127068,0.000411902,0.00131574,0.00588065,0.000919599,0.000907446,0.0012117,0.00209876,0.00153869,0.00142032,0.0027624,0.00117034,0.00172439,0.00092339,0.00227035,0.00177661,0.00451115,0.00126645,0.00113491,0.000959875,0.00154122,0.00126617,0.00640055,0.0195518,0.0371287,0.061519,0.0893003,0.108242,0.12597,0.142273,0.157084,0.159761,0.162929,0.161456,0.161316,0.161155,0.162339,0.162565,0.162555,0.163465,0.163171,0.162866,0.163132,0.163006,0.163537,0.163619,0.164078,0.164047
0.162709,0.162567,0.162509,0.16237,0.162112,0.161232,0.161724,0.161635,0.162924,0.161181,0.1627,0.161441,0.160977,0.161671,0.160592,0.161348,0.156566,0.148492,0.141997,0.129114,0.128284,0.0949062,0.0790116,0.0569996,0.0383003,0.0341485,0.0118142,0,0.0010115,0.00224828,0.000631322,0.000662633,0.000657021,0.00116003,0.000580241,0.000899356,0.000614235,0.00189031,0.00239588,0.00154486,0.00114758,0.0011325,0.00615366,0.000937648,0.000837307,0.00088833,0.00233643,0.000789226,0.00107915,0.00107504,0.00126986,0.00102193,0.00110887,0.00164104,0.00171651,0.0011536,0.00316024,0.000805133,0.00150954,0.00108336,0.0029507,0.00207765,0.00115917,0.00116217,0.00148818,0.00458304,0.000801309,0.00357175,0.0265742,0.00124028,0.00115007,0.00855931,0.00436891,0.00208579,0.00143726,0.00132999,0.00108908,0.00131015,0.000985135,0.000860199,0.00111282,0.00140486,0.00140301,0.00107256,0.00120176,0.00202637,0.00174131,0.00113738,0.00603472,0.00112641,0.000851562,0.0132579,0.00113365,0.00094757,0.000995105,0.00117273,0.00102835,0.00124964,0.00121741,0.00121646,0.00189041,0.000973612,0.00110186,0.0171033,0.00104447,0.0023816,0.00133789,0.00144974,0.000371394,0.000591077,0.00116802,0.00140795,0.00130828,0.00119524,0.00261794,0.00097629,0.00162686,0.00214962,0.00144586,0.00122956,0.00117614,0.00118085,0.00115849,0.000925175,0.00210073,0.00134083,0.00100989,0.00501502,0.00306415,0.00449149,0.0181964,0.032314,0.0592622,0.0827582,0.0934113,0.123535,0.140273,0.15209,0.159591,0.160287,0.160674,0.161283,0.161081,0.168985,0.163019,0.163702,0.162889,0.161945,0.162824,0.162629,0.163015,0.165829,0.163796,0.163627,0.163819
