2.57399,2.57265,2.57127,2.56969,2.56792,2.56586,0.836382,0.250417,0.25017,0.249897,0.249636,0.249338,0.249067,0.248783,0.248548,0.248331,0.248136,0.247233,0.23853,0.217321,0.188714,0.151929,0.11084,0.0692782,0.0313607,0.00486036,0.00128497,0.00107844,0.000866904,0.000732814,0.000610352,0.000525818,0.000457669,0.00041058,0.000396653,0.000362139,0.000402497,0.000652513,0.000747613,0.000916854,0.00100303,0.00101278,0.00101066,0.00104026,0.00105759,0.00107647,0.00109973,0.00112678,0.00115347,0.00119456,0.00123923,0.00129252,0.00138067,0.00148165,0.00157444,0.00165831,0.00174806,0.00187857,0.00203899,0.00222294,0.00246561,0.00267833,0.00280642,0.00293879,0.00305896,0.00319098,0.00330812,0.00344052,0.00352431,0.00354096,-0.000637198,0.00401668,0.00424382,0.00430775,0.00438897,0.0045055,0.00462356,0.00474814,0.00487573,0.00500169,0.00512972,0.00520483,0.00538772,0.0055108,0.00553327,0.00420843,0.0060232,0.00607018,0.00616029,0.00628293,0.00639946,0.00650185,0.00664441,0.00676956,0.00686069,0.00718903,0.00821068,0.00641959,0.00641959,0.00641959,0.0054651,0.00546502,0.00546503,0.00546494,0.00546509,0.00546496,0.00546512,0.00546519,0.00546465,0.00546401,0.00546582,0.00546505,0.00546509,0.00546491,0.00546502,0.005465,0.00236321,0.00236321,0.00236269,0.0023176,0.0023,0.00145011,-0.00173298,0.00221147,0.00246892,0.0026324,0.00308264,0.00277653,0.0135296,0.0422829,0.0877586,0.136269,0.181868,0.216921,0.239708,0.248115,0.248204,0.248445,0.248783,0.249166,0.249572,0.249955,0.250339,0.250703,0.251034,0.251318,0.251573,0.251793,0.251973,0.252136,1.4223,2.58318,2.584,2.58462,2.58501
2.57582,2.57473,2.57362,2.57224,2.57065,1.41497,0.250926,0.25071,0.250489,0.250231,0.249948,0.249657,0.249338,0.24904,0.24876,0.248493,0.248278,0.248199,0.245128,0.230462,0.203155,0.16733,0.123092,0.0786314,0.0366796,0.00832721,0.00134178,0.00107844,0.0008782,0.000738838,0.000616593,0.000528484,0.000457669,0.000413325,0.000396653,0.000362139,0.000408188,0.000652513,0.000747613,0.000916854,0.00100303,0.00101278,0.00101066,0.00104026,0.00105701,0.00107574,0.00109973,0.00112678,0.00115335,0.00119456,0.00123923,0.00129252,0.00137527,0.00147522,0.00157126,0.00165831,0.00174322,0.00187857,0.00203301,0.00221486,0.00246561,0.00267833,0.00280642,0.00293092,0.00305896,0.00318711,0.00330812,0.00344052,0.00352431,0.00353696,-0.000637198,0.00400439,0.00424382,0.00430745,0.00438897,0.00450401,0.00462069,0.00474814,0.00487172,0.00499866,0.00512624,0.00520483,0.00538772,0.00550272,0.00553327,0.00463015,0.0060232,0.00607018,0.00616029,0.00628293,0.00639946,0.00649526,0.00663121,0.00676849,0.00686069,0.00718015,0.00837232,0.00641959,0.00641959,0.00641959,0.00641959,0.00546503,0.00546494,0.00546499,0.00546515,0.00546507,0.00546497,0.005465,0.00546448,0.00546376,0.00546582,0.00546596,0.00546503,0.00546508,0.0054651,0.00546511,0.00236321,0.00236321,0.00236321,0.00231909,0.0023,0.00157303,-0.00173298,0.00221147,0.00246394,0.0026324,0.00308264,0.00266609,0.0141929,0.0466433,0.0953256,0.14989,0.194108,0.228959,0.2462,0.248159,0.248354,0.248687,0.249088,0.249529,0.249932,0.250363,0.250749,0.251088,0.251388,0.25165,0.251872,0.252065,0.252215,0.252333,1.4232,2.58453,2.58497,2.58521,2.58525
2.57725,2.57654,2.5756,2.57456,1.41752,0.251368,0.251208,0.25101,0.2508,0.250562,0.250282,0.249991,0.249677,0.249338,0.24904,0.248715,0.248444,0.248209,0.248261,0.24035,0.216797,0.18339,0.138367,0.0908792,0.0440359,0.0108618,0.00134975,0.0010816,0.0008782,0.000738838,0.000616593,0.000528484,0.000461805,0.000413325,0.000400244,0.000356153,0.000408188,0.000643776,0.000747613,0.000911929,0.00100303,0.00101187,0.00101066,0.00104026,0.00105701,0.00107574,0.00109887,0.00112566,0.00115335,0.00119456,0.00123547,0.00129109,0.00137527,0.00147522,0.00157126,0.00165556,0.00174322,0.0018739,0.00203301,0.00221486,0.00245757,0.00267233,0.00280642,0.00293092,0.00305896,0.00317913,0.00330812,0.0034351,0.00352431,0.00353696,-0.000637198,0.00400439,0.00424382,0.00430745,0.00438456,0.00450327,0.00461496,0.00474492,0.00486371,0.00499264,0.00512624,0.00521248,0.00538355,0.00550272,0.00554071,0.00463015,0.0060232,0.00607165,0.00615571,0.00627758,0.00639574,0.00649526,0.00660479,0.00676285,0.00685592,0.00719711,0.00821644,0.00641959,0.00641959,0.00641959,0.00641959,0.00546503,0.00546492,0.00546515,0.00546493,0.00546508,0.00546501,0.00546489,0.00546441,0.00546333,0.00546498,0.0054659,0.00546498,0.00546496,0.00546503,0.00546494,0.00236321,0.00236321,0.00236321,0.00231909,0.0023,0.00169596,-0.00225238,0.00221147,0.00246394,0.0026324,0.00307291,0.00266609,0.0163181,0.0531163,0.110693,0.163422,0.209767,0.239104,0.248118,0.248269,0.248587,0.249019,0.249461,0.249932,0.250375,0.250795,0.251153,0.251473,0.251745,0.251965,0.25215,0.252292,0.252401,0.252482,0.252525,2.5852,2.58525,2.58509,2.58476
2.57819,2.5778,2.57725,2.57646,0.840129,0.251604,0.251469,0.25131,0.251101,0.250898,0.250631,0.250364,0.250043,0.249698,0.249338,0.248996,0.248685,0.248397,0.248137,0.246741,0.230462,0.200183,0.154904,0.105562,0.0542679,0.0130686,0.00134295,0.00109908,0.00088607,0.000738838,0.000616593,0.000533815,0.000461805,0.000414698,0.000400244,0.000365575,0.000413878,0.000643776,0.000744172,0.000911929,0.00100266,0.00101187,0.00101066,0.00103969,0.00105585,0.00107574,0.00109887,0.00112566,0.00115335,0.00119456,0.00123547,0.00129109,0.00137527,0.00147522,0.00156808,0.00165283,0.00173837,0.0018739,0.00202704,0.0022079,0.00244958,0.00266601,0.00280642,0.00293092,0.00305134,0.00317913,0.00330812,0.0034351,0.00352431,0.0035339,-0.000637198,0.00400439,0.00424382,0.00430745,0.00438254,0.00450327,0.00461496,0.00473841,0.00486371,0.00499264,0.00512624,0.00522013,0.00538355,0.00550272,0.00554071,0.00463015,0.0060232,0.00607239,0.00615412,0.00627758,0.0063926,0.00649526,0.00659999,0.00676285,0.00685592,0.00727565,0.00821644,0.00641959,0.00641959,0.00641959,0.00641959,0.00546495,0.00546495,0.00546506,0.00546515,0.00546499,0.00546506,0.00546498,0.00546465,0.00546464,0.00546529,0.00546505,0.00546503,0.0054651,0.00546505,0.00546506,0.00236321,0.00236321,0.00236321,0.00231909,0.0023,0.00169596,-0.00245872,0.00221249,0.00246394,0.0026324,0.00307291,0.00244522,0.0174584,0.061195,0.122219,0.181868,0.224902,0.2462,0.248173,0.248479,0.248915,0.249416,0.249932,0.250411,0.25085,0.251241,0.251573,0.251838,0.252065,0.252239,0.252374,0.252465,0.25252,0.252553,0.252558,0.843305,2.58467,2.5841,2.58339
2.57864,2.57853,2.57828,1.41992,0.251877,0.2518,0.2517,0.25157,0.251399,0.251217,0.250991,0.25073,0.250458,0.250138,0.249739,0.249386,0.248996,0.248635,0.248331,0.248195,0.24226,0.216797,0.175144,0.123092,0.0651369,0.0167777,0.00131885,0.00109908,0.00088607,0.000738838,0.000616593,0.000533815,0.000463873,0.000414698,0.000403835,0.000365575,0.000413878,0.000643776,0.000744172,0.000907004,0.00100266,0.00101187,0.00101161,0.00103911,0.00105585,0.00107501,0.001098,0.00112339,0.00115335,0.001193,0.00123547,0.00128775,0.0013635,0.00147522,0.00156808,0.00165283,0.00173837,0.00186924,0.00202704,0.0022079,0.00244958,0.00266601,0.00279809,0.00293092,0.00305134,0.00317913,0.00330812,0.0034351,0.00350885,0.0035339,-0.000631537,0.00400439,0.00423136,0.00430745,0.00438254,0.00450327,0.00460898,0.00473841,0.00486371,0.00499264,0.00512624,0.00522778,0.00537722,0.00550272,0.00555231,0.00463015,0.00601626,0.00607239,0.00615253,0.00627212,0.0063926,0.00648856,0.00660274,0.00676285,0.00685048,0.00728517,0.00821239,0.00641959,0.00641959,0.00641959,0.00641959,0.00546504,0.00546503,0.00546515,0.00546515,0.00546499,0.00546502,0.00546471,0.00546389,0.00546389,0.00546464,0.00546559,0.00546485,0.0054651,0.00546502,0.00546494,0.00236321,0.00236321,0.00236321,0.00231909,0.0022811,0.00169596,-0.00245872,0.00221249,0.00246145,0.00262366,0.00307291,0.00244522,0.019872,0.0728741,0.140772,0.198356,0.237456,0.248124,0.248354,0.248792,0.249331,0.249876,0.250435,0.250918,0.251339,0.251669,0.251948,0.252164,0.252321,0.252443,0.252513,0.252552,0.252558,0.252535,0.252489,0.252428,1.4223,2.58212,2.58105
2.57833,2.57855,2.57864,1.4204,0.251979,0.251939,0.251881,0.251795,0.251676,0.251521,0.251335,0.251101,0.250839,0.250531,0.25018,0.249822,0.249396,0.248935,0.248575,0.248264,0.248099,0.23325,0.195824,0.141267,0.0800852,0.0220413,0.00139635,0.00111508,0.00089394,0.000738838,0.000622834,0.000533815,0.000463873,0.000416071,0.000403835,0.000365575,0.000419569,0.000643776,0.000737289,0.000907004,0.00100195,0.00101187,0.00101161,0.00103911,0.00105585,0.00107501,0.001098,0.00112339,0.0011533,0.001193,0.00123547,0.00128775,0.0013635,0.001472,0.00156481,0.00165283,0.00173352,0.00186924,0.00202136,0.00220152,0.00244958,0.00265969,0.00279809,0.00292254,0.00305134,0.00317913,0.00330427,0.0034351,0.00351099,0.00353118,-0.000625876,0.00399545,0.00422434,0.0043072,0.00438254,0.00450061,0.00460898,0.00473841,0.0048597,0.00498964,0.00511582,0.00522778,0.00537722,0.00549696,0.00555231,0.0049891,0.00601364,0.00607418,0.00615253,0.00627212,0.0063892,0.00648856,0.00660274,0.00675768,0.00684671,0.00708757,0.00823082,0.00641959,0.00641959,0.00641959,0.00641959,0.00546495,0.005465,0.00546498,0.00546499,0.00546512,0.00546514,0.00546494,0.00546465,0.00546401,0.00546527,0.00546487,0.00546509,0.00546512,0.00546494,0.005465,0.00236321,0.00236321,0.00236321,0.00232605,0.00227495,0.00169596,-0.00245872,0.00221249,0.00245911,0.00262366,0.00307291,0.00203958,0.021973,0.0847802,0.158914,0.216921,0.246648,0.248233,0.248656,0.249261,0.249876,0.250471,0.250977,0.251452,0.251793,0.252065,0.252269,0.252413,0.252508,0.252552,0.252557,0.252526,0.252473,0.252398,0.25231,0.252216,0.84195,2.57888,2.57745
2.5772,2.5777,1.42015,0.251987,0.252003,0.252003,0.251984,0.251947,0.251881,0.251778,0.251644,0.251477,0.251251,0.250991,0.25066,0.250272,0.249822,0.249406,0.248935,0.248523,0.24817,0.245128,0.216797,0.163715,0.0955067,0.0287531,0.0016473,0.00112307,0.00090181,0.000750885,0.000622834,0.000533815,0.000465941,0.000416071,0.000402264,0.000365575,0.000419569,0.00063983,0.000737289,0.000907004,0.00100195,0.00101141,0.00101311,0.00103911,0.00105585,0.00107501,0.00109641,0.00112339,0.0011533,0.00119142,0.00123172,0.00128775,0.0013635,0.001472,0.00156481,0.0016501,0.00173352,0.00186434,0.00202136,0.00220152,0.00244958,0.00265969,0.00279809,0.00292254,0.00305134,0.00317116,0.00330049,0.00343239,0.00351099,0.00352846,-0.000625876,0.00399545,0.00422434,0.00430748,0.00438254,0.00450061,0.00460898,0.00473161,0.0048566,0.00498964,0.00511237,0.00522778,0.00537722,0.00549388,0.00556501,0.0049891,0.00601364,0.00607418,0.00614691,0.00627212,0.00638541,0.00648856,0.00660366,0.00675631,0.00684387,0.00708757,0.00823082,0.00641959,0.00641959,0.00641959,0.00641959,0.00546499,0.00546506,0.00546505,0.00546508,0.00546499,0.00546512,0.0054651,0.00546382,0.00546342,0.00546468,0.00546559,0.00546509,0.00546503,0.00546505,0.00236321,0.00236321,0.00236321,0.00236321,0.00232605,0.00227166,0.00169596,-0.00245872,0.00221352,0.00245911,0.00259868,0.00307291,0.00203958,0.0241565,0.0998572,0.181868,0.235719,0.248134,0.248514,0.249136,0.249831,0.250505,0.251098,0.251564,0.251931,0.2522,0.252379,0.252497,0.252551,0.252555,0.252518,0.252456,0.252362,0.252259,0.252145,0.252049,0.251946,0.251861,2.57405,2.57236
2.57495,2.57581,1.41884,0.251879,0.251929,0.251971,0.251997,0.252005,0.251992,0.251947,0.251881,0.251762,0.251611,0.251399,0.251101,0.25079,0.250385,0.249948,0.249406,0.248877,0.248427,0.248195,0.23584,0.188714,0.116161,0.0408065,0.00197119,0.00114067,0.00090181,0.000750885,0.000622834,0.000536481,0.000465941,0.000417507,0.000398543,0.000365575,0.000419569,0.00063983,0.000737289,0.000895844,0.00100195,0.00101141,0.00101311,0.00103911,0.00105585,0.00107354,0.00109641,0.00112339,0.00115306,0.00119142,0.00123172,0.00128775,0.0013635,0.00146879,0.00156481,0.0016501,0.00173352,0.00186434,0.00201583,0.00220152,0.00244958,0.00265969,0.00279002,0.00291829,0.00304368,0.00317116,0.00329292,0.00342569,0.00351099,0.00352846,-0.000620215,0.00399545,0.00421732,0.00430775,0.00437679,0.00449588,0.00460898,0.00473161,0.00485386,0.00498363,0.00510895,0.00522778,0.00536584,0.00549388,0.00556501,0.0049891,0.00600841,0.00607467,0.00614691,0.00627212,0.00638541,0.00648856,0.00660986,0.00675493,0.00684387,0.00714913,0.00823082,0.00641959,0.00641959,0.00641959,0.00641959,0.00546503,0.00546502,0.00546493,0.00546515,0.00546498,0.00546501,0.005465,0.00546465,0.00546392,0.00546576,0.00546505,0.00546503,0.00546492,0.0054651,0.00236321,0.00236321,0.00236321,0.00236321,0.00232605,0.00227166,0.00207736,-0.00287139,0.00221352,0.00245697,0.00259868,0.00307291,0.00203958,0.028425,0.118345,0.206333,0.246648,0.248348,0.249019,0.24982,0.250576,0.251197,0.251707,0.252087,0.252321,0.252478,0.252549,0.252554,0.252509,0.252418,0.252317,0.252185,0.252064,0.251954,0.251853,0.25175,0.251639,0.251489,1.41403,2.56596
2.5716,2.5728,0.84009,0.251659,0.251741,0.251818,0.251888,0.251943,0.251982,0.252004,0.251995,0.251956,0.251881,0.251741,0.251556,0.251285,0.250954,0.250531,0.250022,0.249406,0.248814,0.248353,0.247788,0.215721,0.146672,0.0586912,0.00232408,0.00114067,0.000909679,0.000756014,0.000622834,0.000536481,0.000467967,0.000417507,0.000398543,0.000384916,0.000425259,0.000635991,0.000737289,0.000895844,0.00100195,0.00101141,0.00101611,0.00103816,0.00105526,0.00107354,0.00109641,0.00112113,0.00115306,0.00118827,0.00123172,0.00128775,0.0013635,0.00146879,0.00156149,0.0016501,0.00172867,0.00186434,0.00201583,0.00219513,0.0024336,0.00265337,0.00279002,0.00291829,0.00304368,0.00317116,0.00329292,0.00342569,0.00351099,0.00352574,-0.000229865,0.00398635,0.0042103,0.00430775,0.00437679,0.00449588,0.00460898,0.00473161,0.00485386,0.00498363,0.00510895,0.00523741,0.00536584,0.00549388,0.00556501,0.0049891,0.00600022,0.00607467,0.00614691,0.00626843,0.00638541,0.00648169,0.00660986,0.00675493,0.00719006,0.00761805,0.00823082,0.00641959,0.00641959,0.00641959,0.00641959,0.00546503,0.00546492,0.00546497,0.00546499,0.00546499,0.00546498,0.00546494,0.00546444,0.00546389,0.00546527,0.00546546,0.00546503,0.00546496,0.00546502,0.00236321,0.00236321,0.00236321,0.00236321,0.00232605,0.00227166,0.00207736,-0.00307772,0.00221352,0.00245482,0.00259868,0.00307291,0.00126398,0.0341892,0.145369,0.231071,0.248168,0.248845,0.249762,0.250624,0.251358,0.251889,0.252239,0.252443,0.252546,0.252552,0.252485,0.252386,0.252231,0.2521,0.251962,0.251845,0.251721,0.251578,0.251381,0.251153,0.250848,0.250509,1.41049,2.55932
2.56701,2.56839,0.251177,0.251301,0.251404,0.251536,0.251643,0.251726,0.251818,0.251905,0.251958,0.251997,0.252003,0.251963,0.251881,0.2517,0.251492,0.251164,0.25066,0.250138,0.249456,0.248783,0.248209,0.24035,0.177237,0.0800852,0.00240379,0.00116033,0.000915033,0.000756014,0.000622834,0.000536481,0.000467967,0.000417507,0.000394822,0.000384916,0.000426005,0.000628313,0.000737289,0.000895844,0.0010016,0.00101104,0.00101611,0.00103816,0.00105408,0.00107354,0.00109641,0.00112113,0.00115306,0.00118827,0.00123172,0.0012846,0.00135172,0.00146561,0.00156149,0.00164737,0.00172867,0.00186434,0.0020103,0.00219513,0.00242561,0.00265337,0.00278598,0.00291829,0.00304368,0.00316292,0.00329292,0.00342569,0.00351099,0.00352574,-0.000229865,0.00398635,0.00419939,0.00430775,0.00437536,0.00449588,0.00459994,0.00473161,0.00485111,0.00498363,0.00510553,0.00523741,0.00536123,0.0054849,0.00556501,0.00523807,0.00600022,0.00607467,0.00614691,0.0062629,0.00638049,0.0064767,0.00660986,0.00675218,0.00718903,0.00761805,0.00823082,0.00641959,0.00641959,0.00641959,0.00641959,0.00641959,0.00546508,0.00546494,0.00546499,0.00546498,0.00546511,0.00546514,0.00546465,0.00546404,0.00546468,0.00546552,0.00546497,0.005465,0.00546511,0.00236321,0.00236321,0.00236321,0.00236321,0.00233184,0.00227166,0.00222388,-0.00307772,0.00221352,0.00245268,0.00259868,0.00307291,0.000160044,0.0466433,0.177701,0.247591,0.248617,0.249657,0.250738,0.251564,0.252087,0.252401,0.252545,0.252547,0.252456,0.252317,0.252145,0.251971,0.251837,0.25169,0.251504,0.251226,0.250913,0.250465,0.249967,0.249449,0.248934,0.248399,0.83336,2.5517
2.56089,1.41038,0.250649,0.250784,0.250923,0.251055,0.251189,0.251324,0.251477,0.2516,0.251726,0.251818,0.251925,0.251978,0.252005,0.25197,0.251881,0.251676,0.251335,0.250926,0.250231,0.249513,0.248685,0.248177,0.215721,0.111604,0.00486036,0.0011643,0.000923267,0.000756014,0.000625684,0.00054151,0.000467967,0.000418986,0.000394822,0.000394586,0.000426005,0.000628313,0.000731252,0.000895844,0.0010016,0.00101036,0.00101611,0.00103816,0.00105408,0.00107354,0.00109485,0.00112113,0.00115259,0.00118827,0.00123172,0.00127832,0.00135172,0.00146561,0.00155816,0.00164737,0.00172502,0.00185917,0.00200477,0.00218875,0.00242561,0.00265337,0.00278598,0.00291829,0.00303602,0.00316292,0.00329292,0.00342569,0.00352504,0.00353686,-0.000229865,0.00397608,0.00419939,0.00430775,0.00437536,0.00449588,0.00459994,0.00472163,0.00485111,0.00497766,0.00510211,0.00523932,0.00536123,0.0054849,0.00557692,0.00523807,0.00600022,0.00607467,0.00614108,0.0062629,0.00637556,0.0064767,0.00660986,0.00674532,0.00718903,0.00761805,0.00823082,0.00641959,0.00641959,0.00641959,0.00641959,0.00641959,0.00546497,0.00546506,0.00546493,0.00546493,0.00546497,0.00546514,0.00546421,0.00546404,0.00546454,0.00546487,0.00546486,0.00546512,0.00546496,0.00236321,0.00236321,0.00236321,0.00236321,0.00233184,0.00226178,0.00222388,-0.00307772,0.00221068,0.00245268,0.0025908,0.00306318,-0.000138586,0.0728741,0.218481,0.248324,0.249593,0.250861,0.251793,0.252297,0.252531,0.252537,0.252408,0.252193,0.252002,0.251805,0.251604,0.251339,0.250944,0.250419,0.249801,0.249078,0.248471,0.247765,0.247135,0.246422,0.245799,0.245101,0.824997,2.52346
2.55313,1.40704,0.249944,0.250078,0.250219,0.250358,0.250563,0.250683,0.250892,0.251055,0.251189,0.251404,0.251546,0.251705,0.251855,0.251943,0.252001,0.251986,0.251881,0.251611,0.251164,0.250489,0.249513,0.248548,0.244123,0.154904,0.0108618,0.0011768,0.000923267,0.000756014,0.000625684,0.00054151,0.000469976,0.000418986,0.000391102,0.000394586,0.000426005,0.000628313,0.000731252,0.000895844,0.00100016,0.00101036,0.00101611,0.00103694,0.00105408,0.00107291,0.00109485,0.00112113,0.00115259,0.00118827,0.00123172,0.00127832,0.00135172,0.00146245,0.0015515,0.00164464,0.00172502,0.00184883,0.00200477,0.00218875,0.00242561,0.00265337,0.00278598,0.00290978,0.00303602,0.00316292,0.00328913,0.00342112,0.00352504,0.00353686,-0.000229865,0.00397608,0.00419939,0.00430777,0.00437536,0.00449588,0.00459994,0.00472163,0.00484563,0.00497766,0.00510211,0.00523932,0.00536123,0.0054849,0.00557692,0.00523807,0.00600022,0.00607482,0.00613454,0.0062629,0.00637556,0.0064767,0.0066213,0.00674532,0.00718015,0.00721393,0.00808822,0.00641959,0.00641959,0.00641959,0.00641959,0.00641959,0.00546504,0.00546507,0.00546502,0.00546494,0.00546514,0.00546503,0.00546382,0.0054641,0.00546545,0.00546559,0.00546485,0.0054651,0.00546506,0.00236321,0.00236321,0.00236321,0.00236321,0.00233184,0.00226178,0.00222388,-0.00307772,0.00221068,0.00245053,0.00257505,0.00306318,-0.000138586,0.111497,0.248115,0.249416,0.251098,0.252094,0.252511,0.252523,0.252317,0.252033,0.251796,0.25152,0.251066,0.250325,0.249449,0.248661,0.247536,0.24685,0.245898,0.244841,0.243696,0.24245,0.241035,0.239672,0.238091,0.236168,0.234582,2.41402
2.54353,0.829777,0.249061,0.2492,0.249327,0.249456,0.249649,0.249812,0.24999,0.250178,0.250358,0.250563,0.250831,0.251055,0.251189,0.251457,0.251705,0.25186,0.251978,0.252003,0.251881,0.251492,0.25073,0.249607,0.248415,0.212962,0.0220413,0.00118655,0.000927384,0.000765733,0.000631218,0.00054151,0.000471985,0.000420464,0.000387381,0.000394586,0.000426005,0.000628313,0.000731252,0.000884115,0.00100016,0.00101036,0.00101761,0.00103694,0.00105408,0.00107291,0.00109485,0.00112113,0.00115211,0.0011867,0.00122833,0.00127832,0.00135172,0.00145612,0.0015515,0.00164183,0.00172196,0.00184883,0.00199924,0.00217621,0.00242561,0.00263288,0.00278598,0.00290502,0.00303602,0.00316292,0.00328913,0.00341198,0.00352504,0.00353686,0.000290984,0.00397608,0.00419939,0.00430777,0.00437536,0.00448767,0.00459994,0.00472163,0.00484299,0.00496872,0.00509869,0.00523932,0.00536123,0.00547694,0.00557692,0.00525794,0.00600022,0.00607026,0.00613454,0.00625921,0.00636938,0.0064767,0.0066213,0.00674532,0.00718015,0.00721393,0.00808822,0.00641959,0.00641959,0.00641959,0.00641959,0.00641959,0.00546507,0.00546495,0.00546509,0.00546511,0.00546503,0.00546519,0.00546469,0.00546366,0.00546481,0.00546586,0.00546494,0.00546512,0.00546506,0.00236321,0.00236321,0.00236321,0.00236321,0.00233184,0.00226178,0.00222388,-0.00274435,0.00221068,0.00245053,0.00257505,0.00303628,-0.000138586,0.177701,0.249019,0.251452,0.252465,0.252481,0.2521,0.251711,0.251226,0.250073,0.248862,0.247462,0.246062,0.244312,0.242688,0.239959,0.238091,0.235369,0.232867,0.230393,0.227642,0.225424,0.223793,0.22315,0.222594,0.2212,0.217887,2.25762
2.49503,0.818848,0.245173,0.245774,0.246526,0.247056,0.24754,0.248058,0.248399,0.248993,0.2492,0.249352,0.249649,0.249812,0.250078,0.250358,0.250683,0.251011,0.251324,0.251643,0.25187,0.252004,0.251881,0.251217,0.249822,0.248142,0.0844771,0.00120614,0.000931501,0.000770592,0.000631218,0.000546508,0.000471985,0.000420464,0.000387381,0.000394586,0.000426005,0.000628313,0.000731252,0.000878251,0.00100016,0.00101036,0.00101761,0.00103694,0.00105408,0.00107234,0.00109485,0.00112011,0.00115211,0.0011849,0.00122666,0.00127832,0.00134673,0.00145612,0.0015515,0.00164183,0.00172196,0.00184883,0.00199924,0.00217621,0.00242561,0.00263288,0.00278598,0.00290502,0.00303602,0.00315462,0.00328913,0.00341198,0.00352504,0.00353686,0.000290984,0.00397608,0.00419939,0.00430777,0.00437249,0.00448767,0.00459,0.00471559,0.00484299,0.00496872,0.00509337,0.00523489,0.00534809,0.00547694,0.00558248,0.00525794,0.0059922,0.00606798,0.00613454,0.00625376,0.00636938,0.00647042,0.0066213,0.00674264,0.00719711,0.00624479,0.00808822,0.00641959,0.00641959,0.00641959,0.00641959,0.00641959,0.00546493,0.00546509,0.00546499,0.00546498,0.00546494,0.0054651,0.00546384,0.00546342,0.00546481,0.00546568,0.00546497,0.0054651,0.00546492,0.00236321,0.00236321,0.00236321,0.00236321,0.0023349,0.00226178,0.00266342,-0.00274435,0.00221068,0.00244845,0.00257505,0.00303628,0.00421284,0.248233,0.2522,0.252291,0.25152,0.249449,0.24653,0.242688,0.236574,0.232867,0.229862,0.225016,0.223289,0.222594,0.218991,0.215779,0.213872,0.208842,0.207266,0.207152,0.207663,0.207175,0.205193,0.204182,0.20317,0.202139,0.201101,1.16105
2.34157,0.23201,0.23291,0.234232,0.234232,0.236293,0.236293,0.237805,0.239593,0.240574,0.240897,0.242696,0.24451,0.24451,0.246526,0.247967,0.248399,0.248993,0.249577,0.24999,0.250358,0.250923,0.251546,0.251925,0.251881,0.250138,0.200183,0.00122614,0.000931501,0.000770592,0.000631218,0.000546508,0.000473995,0.000421942,0.000387381,0.000400969,0.000425444,0.000624474,0.000727194,0.000878251,0.00100016,0.00101036,0.00101877,0.00103694,0.00105349,0.00107177,0.00109485,0.00111826,0.00115164,0.0011849,0.00122666,0.00127832,0.00133804,0.00145612,0.0015515,0.00164183,0.0017189,0.00184883,0.00199392,0.00217621,0.00242561,0.00262563,0.00277763,0.00290502,0.00302817,0.00315462,0.00327718,0.00341198,0.00352498,0.00353686,0.000811832,0.00397094,0.00415981,0.00430777,0.0043693,0.00447923,0.00459,0.00471559,0.00484299,0.00496872,0.00509337,0.00523489,0.00534491,0.00547694,0.00558248,0.00525794,0.0059922,0.0060657,0.00613017,0.00625376,0.00636938,0.00647042,0.0066213,0.00673863,0.00727565,0.00607843,0.00808822,0.00641959,0.00641959,0.00641959,0.00641959,0.00641959,0.00546501,0.00546497,0.00546496,0.00546499,0.00546506,0.0054649,0.00546421,0.0054641,0.00546473,0.00546536,0.00546505,0.005465,0.00546495,0.00236321,0.00236321,0.00236321,0.00236321,0.0023349,0.00226178,0.00266342,-0.00255975,0.00220609,0.00244646,0.00255978,0.00303628,0.00421284,0.224201,0.22215,0.218991,0.213872,0.206897,0.207175,0.205193,0.204182,0.20162,0.199578,0.199079,0.196529,0.196009,0.194467,0.193449,0.191925,0.190909,0.189895,0.188882,0.188375,0.187374,0.186884,0.185905,0.184921,0.184424,0.183429,1.03095
2.14304,0.685082,0.213241,0.21449,0.215114,0.215114,0.215114,0.217581,0.218703,0.218703,0.218703,0.218703,0.218703,0.221958,0.222509,0.223061,0.227851,0.227851,0.227851,0.229776,0.23246,0.234232,0.237805,0.240897,0.24451,0.250279,0.2517,0.00122614,0.000945642,0.000770592,0.000631218,0.000546508,0.000473995,0.000421942,0.000386241,0.000406549,0.000425444,0.000624474,0.000727194,0.000878251,0.000997323,0.00101003,0.00101877,0.00103572,0.00105349,0.00107177,0.00109485,0.00111826,0.00115038,0.0011849,0.00122499,0.00127832,0.00133804,0.00145612,0.0015515,0.001639,0.0017189,0.00184883,0.0019887,0.00217013,0.00240017,0.00262563,0.00277763,0.00290502,0.00302817,0.00315462,0.00327718,0.00341198,0.00352498,0.00353686,0.00133268,0.00397094,0.00414662,0.00430479,0.0043693,0.00447923,0.00459,0.00471559,0.00484299,0.00496872,0.00509337,0.00523489,0.00534173,0.00547694,0.00558248,0.00528029,0.0059922,0.0060657,0.00612796,0.00624838,0.00636938,0.00647042,0.0066213,0.00673543,0.00727565,0.00607843,0.00808822,0.00641959,0.00641959,0.00641959,0.00641959,0.00641959,0.00546511,0.00546506,0.00546509,0.00546499,0.00546498,0.00546496,0.0054639,0.00546404,0.00546511,0.00546599,0.00546505,0.00546497,0.00546506,0.00236321,0.00236321,0.00236321,0.00236321,0.0023349,0.00228546,0.00266342,-0.00255975,0.00220609,0.00244447,0.00255226,0.00303628,0.183926,0.183926,0.182427,0.181407,0.179905,0.178955,0.17848,0.17752,0.177029,0.176538,0.175085,0.174622,0.174158,0.173695,0.172293,0.172293,0.171351,0.171351,0.17088,0.170431,0.169989,0.169105,0.169105,0.168663,0.168218,0.167771,0.167324,0.980906
1.93495,0.631465,0.186877,0.186877,0.186877,0.186877,0.186877,0.186877,0.186877,0.186877,0.186877,0.186877,0.186877,0.186877,0.186877,0.186877,0.186877,0.186877,0.186877,0.186877,0.186877,0.186877,0.186877,0.186877,0.186877,0.186877,0.186877,0.200328,0.000945642,0.000770592,0.000636752,0.000546508,0.000473995,0.000423421,0.000386241,0.00041213,0.000424882,0.000624474,0.000727194,0.000878251,0.000997323,0.00100937,0.00101877,0.00103572,0.00105285,0.00107177,0.00109407,0.00111826,0.00115038,0.0011849,0.00122499,0.00127179,0.00133804,0.00145612,0.00154824,0.00163616,0.00171584,0.00184366,0.0019887,0.00216405,0.00240017,0.00262563,0.00277341,0.00290502,0.00302817,0.00315462,0.00327718,0.00341198,0.00352498,0.00355497,0.00133268,0.00397094,0.00414662,0.00430479,0.0043693,0.00447923,0.00458329,0.00471559,0.00484299,0.00496597,0.00509093,0.00523489,0.00533538,0.00546936,0.00558179,0.00528029,0.00599008,0.00605906,0.00612575,0.00624838,0.00636938,0.00646515,0.0066213,0.00673543,0.00727565,0.00603342,0.00808822,0.00641959,0.00641959,0.00641959,0.00641959,0.00641959,0.00546509,0.00546492,0.00546508,0.00546512,0.00546511,0.00546489,0.00546425,0.00546333,0.00546545,0.00546536,0.00546485,0.005465,0.00546496,0.00236321,0.00236321,0.00236321,0.00236321,0.00233769,0.00228546,0.00266342,-0.00237515,0.00220609,0.00244247,0.00254475,0.161502,0.161502,0.160307,0.160307,0.159188,0.159188,0.159188,0.159188,0.159188,0.158092,0.158092,0.158092,0.157392,0.157392,0.157042,0.157042,0.157042,0.156358,0.156358,0.156028,0.156028,0.155699,0.155369,0.155369,0.155369,0.15504,0.154736,0.154736,0.8924
1.74399,0.572213,0.170352,0.170352,0.170352,0.170352,0.170352,0.170352,0.168799,0.168799,0.168799,0.167782,0.167782,0.167782,0.167782,0.166765,0.166765,0.165867,0.165867,0.165867,0.165867,0.165867,0.165867,0.165867,0.165867,0.165867,0.162284,0.162284,0.162284,0.000770592,0.000636752,0.000551844,0.000478142,0.000424952,0.000387617,0.00041213,0.000424882,0.000617344,0.000727194,0.00087255,0.000997323,0.00100937,0.00101877,0.00103572,0.00105151,0.0010712,0.00109326,0.00111826,0.00115038,0.00118266,0.00122332,0.00127179,0.00133804,0.00145296,0.00154824,0.00163616,0.00171279,0.00183866,0.0019887,0.00216405,0.00239161,0.00262563,0.00276919,0.00288971,0.00302817,0.00314646,0.00327718,0.0033963,0.00352498,0.00355497,0.00211959,0.00396269,0.00414662,0.00430479,0.0043693,0.00447923,0.00458329,0.00470661,0.00484039,0.00496597,0.00508848,0.00523489,0.00533538,0.00546936,0.00558179,0.00528029,0.00624326,0.00605906,0.00612354,0.00624838,0.00636619,0.00646515,0.00661537,0.00673035,0.00728517,0.00603342,0.00756542,0.00641959,0.00641959,0.00641959,0.00641959,0.00641959,0.00641959,0.00546494,0.00546499,0.00546515,0.00546501,0.00546509,0.00546489,0.00546393,0.00546527,0.00546568,0.00546509,0.00546508,0.00546512,0.00236321,0.00236321,0.00236321,0.00236321,0.00233769,0.00228546,0.00266342,-0.0017554,0.00220609,0.00244247,0.150087,0.14974,0.14974,0.14974,0.14974,0.1494,0.1494,0.1494,0.1494,0.149089,0.149089,0.149089,0.149089,0.148826,0.148826,0.148694,0.148694,0.148694,0.148694,0.148453,0.148453,0.148453,0.148453,0.148261,0.148261,0.148261,0.148164,0.148164,0.148068,1.5281
1.59287,0.519973,0.155926,0.155926,0.154934,0.154934,0.154934,0.154934,0.15402,0.15402,0.15402,0.15402,0.153165,0.153165,0.153165,0.153165,0.153165,0.153165,0.153165,0.153165,0.151964,0.151964,0.151964,0.1514,0.1514,0.1514,0.1514,0.1514,0.1514,0.1514,0.000636752,0.000551844,0.000478142,0.000424952,0.000387617,0.00041213,0.000424882,0.000608808,0.000723137,0.00087255,0.000997323,0.00100937,0.00101877,0.00103572,0.00105151,0.00107063,0.0010916,0.00111826,0.00115038,0.00118266,0.00122332,0.00127179,0.00133804,0.00145296,0.00154502,0.00163616,0.00171279,0.00183866,0.0019887,0.00216405,0.00239161,0.00262563,0.00276919,0.00288971,0.00301978,0.00314254,0.00327718,0.0033963,0.00352498,0.00355497,0.00211959,0.00396183,0.00414662,0.00430479,0.00436539,0.00447923,0.00458329,0.00470661,0.00484039,0.00496072,0.00508604,0.00523043,0.00533538,0.00546936,0.00558179,0.00526112,0.00624326,0.00605906,0.00612354,0.00624274,0.00636408,0.00646515,0.00661537,0.00673035,0.00708757,0.00603342,0.00756542,0.00641959,0.00641959,0.00641959,0.00641959,0.00641959,0.00641959,0.00546515,0.00546495,0.00546504,0.00546498,0.00546516,0.00546489,0.00546392,0.00546529,0.00546598,0.00546509,0.0054651,0.00546503,0.00236321,0.00236321,0.00236321,0.00236321,0.00233769,0.00228546,0.00276185,-0.0017554,0.00220609,0.14699,0.146954,0.146954,0.146918,0.146918,0.146881,0.146881,0.146857,0.146857,0.146838,0.146838,0.14682,0.14682,0.146802,0.146784,0.146784,0.146772,0.146772,0.146772,0.146772,0.146761,0.146755,0.146755,0.146755,0.146749,0.146748,0.146748,0.14675,0.14675,0.146753,1.51872
1.52083,0.494798,0.149367,0.149367,0.149191,0.149191,0.149191,0.148936,0.148936,0.148936,0.148936,0.148936,0.148713,0.148713,0.148713,0.148713,0.148713,0.148713,0.148713,0.148576,0.148576,0.148576,0.148265,0.148265,0.148265,0.148265,0.148265,0.148265,0.148265,0.148265,0.147974,0.000551844,0.000480309,0.000424952,0.000388993,0.00041771,0.000424321,0.000608808,0.000723137,0.000866921,0.000997323,0.00100937,0.00101915,0.00103636,0.00105151,0.00107063,0.0010916,0.00111734,0.00115038,0.00118266,0.00122003,0.00126833,0.0013337,0.00145296,0.00154179,0.00163333,0.00171028,0.00183374,0.0019887,0.00215797,0.00239161,0.00261113,0.00276498,0.00288971,0.00301978,0.00314254,0.00326914,0.0033963,0.00352133,0.00356402,0.00211959,0.00396183,0.00411272,0.00430479,0.00436539,0.0044664,0.00457693,0.00470661,0.00484039,0.00496072,0.00508604,0.00521358,0.00533538,0.00546936,0.00557915,0.00526112,0.00624326,0.00605906,0.00612354,0.00624274,0.00636408,0.00646159,0.00660641,0.00672875,0.00708757,0.00577501,0.00756542,0.00641959,0.00641959,0.00641959,0.00641959,0.00641959,0.00641959,0.00546507,0.00546507,0.00546499,0.00546491,0.0054651,0.0054639,0.00546382,0.00546471,0.00546526,0.00546503,0.00546512,0.005465,0.00236321,0.00236321,0.00236321,0.00236321,0.00233769,0.00231294,0.00277392,-0.0017554,0.146847,0.146847,0.146847,0.146847,0.146888,0.146888,0.146888,0.146888,0.146888,0.14694,0.14694,0.14694,0.14694,0.14694,0.146965,0.146976,0.146976,0.146988,0.146988,0.146988,0.146988,0.147006,0.147006,0.147011,0.147011,0.147015,0.147019,0.147019,0.147024,0.147024,0.147028,1.5168
1.51516,0.492702,0.147387,0.147387,0.147387,0.147294,0.147294,0.147294,0.147294,0.147294,0.147294,0.147246,0.147246,0.147246,0.147246,0.1472,0.1472,0.1472,0.1472,0.147107,0.147107,0.147107,0.147107,0.147107,0.147107,0.147107,0.147107,0.147107,0.147076,0.147076,0.147076,0.14705,0.000480309,0.000426499,0.000388993,0.000423291,0.000423292,0.000591735,0.000723137,0.000861292,0.000995905,0.00100937,0.00101992,0.00103636,0.00105151,0.00107063,0.0010916,0.00111559,0.00114777,0.00118041,0.00122003,0.00126833,0.00132623,0.00144982,0.00154179,0.0016305,0.00170804,0.00182883,0.00197304,0.00215189,0.00238304,0.0026036,0.00276092,0.00288971,0.00301978,0.00314254,0.00326914,0.0033963,0.00352133,0.00357457,0.00211959,0.00396183,0.00411272,0.00430479,0.00436539,0.0044664,0.00457693,0.00470661,0.00484039,0.00496072,0.00508345,0.00520473,0.00533538,0.00546936,0.00557915,0.00526112,0.00624326,0.00605882,0.0061211,0.00624274,0.006361,0.00645803,0.00660013,0.00672875,0.00708757,0.00577501,0.00756542,0.00641959,0.00641959,0.00641959,0.00641959,0.00641959,0.00641959,0.00546497,0.00546495,0.00546511,0.00546498,0.00546508,0.00546463,0.00546393,0.0054641,0.00546546,0.00546503,0.00546502,0.005465,0.00236321,0.00236321,0.00236321,0.00236321,0.00233931,0.00231294,0.00277392,0.147079,0.147079,0.147079,0.147079,0.147079,0.147082,0.147082,0.147083,0.147083,0.147083,0.147083,0.147083,0.147089,0.147089,0.147089,0.147089,0.147097,0.147106,0.147106,0.147106,0.147106,0.147124,0.147124,0.147133,0.147133,0.147133,0.147144,0.147156,0.147156,0.147169,0.147169,0.147182,1.51398
1.51649,0.493111,0.146916,0.146902,0.146894,0.146894,0.146894,0.146894,0.146894,0.14688,0.14688,0.14688,0.14688,0.146866,0.146866,0.146866,0.146866,0.146837,0.146837,0.146837,0.146837,0.146837,0.146837,0.146837,0.146837,0.146837,0.146827,0.146827,0.146827,0.146827,0.146817,0.146817,0.146817,0.000428046,0.000390369,0.000423291,0.000420834,0.000591735,0.000723137,0.000861292,0.000991544,0.00100937,0.00101992,0.00103636,0.00105151,0.00106925,0.0010916,0.00111559,0.00114777,0.00118041,0.00122003,0.00125797,0.00132623,0.00144669,0.00154179,0.00162768,0.00170804,0.00182883,0.00197304,0.00215189,0.00237466,0.0026036,0.00275693,0.00288971,0.00301978,0.00314254,0.00326914,0.0033963,0.00352133,0.00357457,0.00211959,0.00396011,0.00411272,0.00429813,0.00436148,0.0044618,0.00457693,0.00469795,0.00483408,0.0049581,0.00508073,0.00520473,0.00533538,0.00546454,0.00557624,0.00524194,0.00624326,0.00605882,0.0061211,0.00623701,0.00635584,0.00645803,0.00659732,0.00672875,0.00714913,0.00576444,0.00756542,0.00641959,0.00641959,0.00641959,0.00641959,0.00641959,0.00641959,0.00546515,0.00546493,0.00546499,0.00546506,0.00546489,0.00546464,0.00546335,0.00546545,0.00546546,0.00546511,0.00546508,0.005465,0.00236321,0.00236321,0.00236321,0.00236321,0.00233931,0.00231294,0.147308,0.147331,0.147375,0.147399,0.147399,0.147399,0.147399,0.147399,0.147445,0.147445,0.147445,0.147445,0.147479,0.147489,0.147489,0.147499,0.147499,0.147509,0.147509,0.147509,0.147527,0.147527,0.147534,0.147534,0.147534,0.147547,0.147547,0.147554,0.147554,0.147554,0.147553,0.147549,0.147545,0.831703
1.51462,0.49257,0.146712,0.146712,0.146695,0.146695,0.146695,0.146695,0.146678,0.146678,0.146678,0.146678,0.14666,0.14666,0.14666,0.14666,0.146642,0.146613,0.146613,0.146613,0.146613,0.146613,0.146613,0.146613,0.146613,0.146613,0.146613,0.146592,0.146592,0.146538,0.146538,0.146538,0.146538,0.146538,0.000390369,0.000423291,0.000420834,0.000591735,0.000723137,0.000855662,0.000991544,0.00100907,0.00101992,0.00103636,0.00105084,0.00106925,0.0010916,0.00111559,0.00114777,0.00118041,0.00122003,0.00125797,0.00132623,0.00144669,0.00153856,0.00162768,0.0017058,0.00182883,0.00197304,0.00214556,0.00237466,0.0026036,0.00275693,0.00288055,0.00300719,0.00314254,0.00326103,0.00337907,0.00352133,0.00357457,0.00264151,0.00396011,0.00411272,0.00429813,0.00436148,0.0044618,0.00457693,0.00469795,0.00483408,0.00495258,0.00507802,0.00520473,0.00532813,0.00545872,0.00557624,0.00524194,0.00624326,0.00606171,0.00612171,0.00623701,0.00635584,0.00645423,0.00659732,0.00671757,0.00714913,0.00576444,0.00756542,0.00641959,0.00641959,0.00641959,0.00641959,0.00641959,0.00641959,0.00546512,0.00546496,0.00546515,0.00546492,0.00546508,0.00546393,0.00546354,0.00546545,0.00546576,0.00546492,0.00546498,0.00546506,0.00236321,0.00236321,0.00236321,0.00236321,0.00233931,0.147454,0.147454,0.147449,0.147449,0.147445,0.147445,0.147445,0.147445,0.147445,0.147395,0.147395,0.147376,0.147376,0.147357,0.147336,0.147336,0.147336,0.147336,0.147289,0.147266,0.147266,0.147243,0.147243,0.147208,0.147208,0.147165,0.147165,0.147122,0.147079,0.147079,0.147036,0.147036,0.146932,0.146768,0.828671
1.51162,0.491397,0.146382,0.146382,0.146357,0.146345,0.146345,0.146345,0.146345,0.146345,0.146319,0.146319,0.146319,0.146319,0.146319,0.146289,0.146243,0.146243,0.146243,0.146243,0.146243,0.146243,0.146243,0.146243,0.146243,0.146213,0.146213,0.146213,0.146213,0.146213,0.146182,0.146121,0.146121,0.146121,0.146121,0.000415045,0.000420834,0.000591735,0.000723137,0.000855662,0.000991544,0.00100907,0.00101992,0.00103636,0.00105084,0.00106925,0.0010916,0.00111559,0.00114777,0.00118041,0.00122003,0.00125797,0.00132623,0.00144669,0.00153856,0.00162768,0.0017058,0.00182391,0.00197304,0.00214556,0.00236637,0.00259584,0.00275693,0.00287707,0.00300719,0.00313471,0.00326103,0.00337907,0.00352133,0.00359736,0.00264151,0.00395925,0.00411272,0.00429813,0.00436148,0.0044618,0.00457693,0.00469795,0.00482348,0.00495258,0.00507802,0.00520473,0.00532647,0.00545872,0.00557252,0.00524469,0.00624326,0.00606171,0.00612171,0.00623701,0.00635584,0.00645423,0.00659732,0.00671496,0.00761805,0.00576444,0.00756542,0.00641959,0.00641959,0.00641959,0.00641959,0.00641959,0.00641959,0.00546507,0.00546506,0.00546498,0.00546501,0.00546503,0.00546466,0.00546388,0.00546468,0.00546573,0.00546511,0.00546504,0.00236321,0.00236321,0.00236321,0.00236321,0.00236321,0.142499,0.142499,0.143707,0.147329,0.147329,0.147329,0.147329,0.147329,0.148372,0.149239,0.149239,0.150107,0.150107,0.150974,0.150974,0.150974,0.150974,0.150964,0.150964,0.150964,0.150183,0.150183,0.149402,0.149402,0.14862,0.148111,0.148111,0.147891,0.147891,0.147672,0.147452,0.147452,0.147232,0.147117,0.147117,0.826869
1.50864,0.490515,0.145921,0.145921,0.145921,0.14588,0.14588,0.14588,0.14588,0.145837,0.145837,0.145837,0.145771,0.145771,0.145771,0.145771,0.145771,0.145771,0.145771,0.145771,0.145728,0.145728,0.145728,0.145623,0.145623,0.145623,0.145623,0.145623,0.145623,0.145623,0.145623,0.145623,0.145623,0.145623,0.145512,0.145512,0.000420834,0.000591735,0.000713692,0.000850033,0.000991544,0.00100815,0.00101992,0.00103636,0.00105016,0.00106925,0.00108913,0.00111559,0.00114516,0.00118041,0.00122003,0.00125797,0.00132623,0.00143728,0.00153534,0.00162204,0.0017058,0.00182391,0.00197304,0.0021391,0.00236637,0.00259584,0.00275693,0.00287707,0.00300719,0.00313471,0.00326103,0.00337907,0.00352133,0.00362015,0.00264151,0.00395925,0.00411272,0.00429607,0.00436148,0.0044618,0.0045675,0.00469795,0.00482348,0.00494954,0.0050753,0.00518903,0.00532647,0.00545872,0.00556729,0.00524469,0.0081491,0.0060646,0.00612231,0.00623701,0.00635214,0.00645423,0.00658696,0.00671496,0.00761805,0.00821068,0.00756542,0.00641959,0.00641959,0.00641959,0.00641959,0.00641959,0.00641959,0.00546498,0.00546506,0.00546518,0.00546511,0.0054651,0.00546471,0.00546385,0.00546545,0.00546573,0.00546487,0.00546509,0.00236321,0.00236321,0.00236321,0.00236321,0.14709,0.14709,0.14709,0.14709,0.147089,0.147087,0.147087,0.147086,0.147085,0.147085,0.147083,0.147083,0.14708,0.147078,0.147078,0.147075,0.147073,0.147073,0.14707,0.147067,0.147067,0.147063,0.147063,0.14706,0.147057,0.147057,0.147054,0.147054,0.147052,0.14705,0.14705,0.147048,0.147045,0.147045,0.147046,0.147046,0.82556
1.50577,0.489595,0.145263,0.145263,0.145214,0.14519,0.14519,0.14519,0.14519,0.14519,0.14519,0.14514,0.14514,0.14514,0.14514,0.14509,0.145013,0.145013,0.145013,0.145013,0.145013,0.145013,0.145013,0.145013,0.145013,0.145013,0.144894,0.144894,0.144894,0.144894,0.144894,0.144894,0.144894,0.144894,0.144894,0.144801,0.144801,0.000583199,0.000713692,0.000850033,0.000988204,0.00100815,0.00101994,0.00103636,0.00105016,0.00106779,0.00108913,0.00111559,0.00114516,0.00117857,0.00121675,0.00125797,0.00132623,0.00143728,0.0015321,0.00162204,0.0017058,0.001819,0.00196754,0.0021391,0.00235808,0.00259584,0.00275693,0.00287707,0.00300719,0.00313471,0.00326103,0.00337907,0.0035081,0.00362015,0.00298603,0.00395925,0.00408137,0.00429607,0.00436148,0.00444799,0.0045675,0.00469795,0.00482348,0.00494651,0.00507259,0.00518581,0.00532647,0.00545872,0.00556729,0.00524993,0.0081491,0.0060646,0.000939361,0.000939305,0.000939235,0.000939189,0.000939115,0.000939042,0.000939011,0.00093871,0.00093896,0.000938978,0.000938955,0.000938936,0.000938921,0.000938909,0.000938898,0.000938888,0.000938914,0.000938878,0.000938227,0.000938764,0.00094573,0.000945661,0.000944747,0.000943896,0.000943194,0.000942547,0.000940349,0.000943419,0.000820339,0.000701434,0.147139,0.147139,0.147139,0.14714,0.14714,0.147141,0.147141,0.147141,0.147141,0.147141,0.147141,0.147141,0.147141,0.14714,0.147139,0.147139,0.147138,0.147138,0.147137,0.147137,0.147136,0.147136,0.147136,0.147135,0.147135,0.147135,0.147135,0.147135,0.147135,0.147135,0.147135,0.147135,0.147135,0.147135,0.147135,0.147135,0.824309
1.50329,0.826572,0.144657,0.144642,0.144627,0.144627,0.144627,0.144627,0.144627,0.144595,0.144595,0.144595,0.144546,0.144546,0.144546,0.144546,0.144546,0.144546,0.144546,0.144546,0.144513,0.144513,0.144513,0.144513,0.144433,0.144433,0.144433,0.144433,0.144433,0.144433,0.144433,0.144433,0.144433,0.144348,0.144348,0.144348,0.144348,0.144348,0.00221116,0.00202778,0.00187456,0.00173983,0.00165598,0.00156156,0.00146925,0.00137636,0.00128692,0.00123617,0.00119246,0.00115514,0.00112493,0.00109887,0.0010762,0.0010564,0.00104026,0.00102488,0.00101213,0.00100087,0.000993228,0.000985457,0.000978755,0.000972958,0.000968032,0.000964103,0.000960477,0.000957366,0.00095471,0.000952438,0.000950619,0.000948928,0.000947488,0.0009462,0.000945182,0.000944299,0.000943512,0.000942844,0.000941811,0.000941735,0.000941381,0.000941011,0.000940708,0.000940683,0.00094021,0.000939963,0.000939794,0.000940014,0.000939485,0.0009392,0.000939361,0.000939305,0.00093924,0.000939189,0.000939115,0.000939043,0.000939011,0.00093871,0.00093896,0.000938979,0.000938955,0.000938936,0.000938921,0.000938909,0.000938898,0.000938889,0.000938914,0.000938878,0.000938854,0.000938764,0.00094573,0.00094573,0.000944747,0.000943896,0.000943218,0.000942588,0.000940349,0.000943419,0.000820339,0.000701434,0.000568309,0.147128,0.147128,0.147127,0.147123,0.147123,0.147123,0.147123,0.147123,0.147123,0.147123,0.147123,0.147123,0.147123,0.147123,0.147135,0.147135,0.147135,0.147135,0.14714,0.14714,0.147152,0.147152,0.147152,0.147152,0.147156,0.147159,0.147159,0.147163,0.147163,0.147168,0.147168,0.147168,0.147171,0.147174,0.147177,0.823569
1.50141,0.825825,0.144085,0.144062,0.144062,0.144062,0.144062,0.144017,0.144017,0.144017,0.144017,0.144017,0.143987,0.143942,0.143942,0.143942,0.143942,0.143942,0.143942,0.143942,0.143942,0.143942,0.143885,0.143885,0.143885,0.143885,0.143885,0.143885,0.143885,0.143885,0.143885,0.143885,0.14383,0.14383,0.14383,0.14383,0.14383,0.00245759,0.00221116,0.00203373,0.00187973,0.00173983,0.00165598,0.00157137,0.00147894,0.00137636,0.00128692,0.00123617,0.00119403,0.00115514,0.00112493,0.00109887,0.00107698,0.0010564,0.00104026,0.00102488,0.00101296,0.00100087,0.000993228,0.000985457,0.000978755,0.000972958,0.000968592,0.000964103,0.000960595,0.000957366,0.00095471,0.000952438,0.000950685,0.000948928,0.000947488,0.000946281,0.000945182,0.000944329,0.000943538,0.000942888,0.000941811,0.000941735,0.000941395,0.000941024,0.000940708,0.000940683,0.00094021,0.000939963,0.000939811,0.000939888,0.000939485,0.000939095,0.000939361,0.000939305,0.00093924,0.000939439,0.00093914,0.000939043,0.000939013,0.00093871,0.00093896,0.000938979,0.000938955,0.000938936,0.000938921,0.000938909,0.000938899,0.000938889,0.000938914,0.000938888,0.000938854,0.000938764,0.00094573,0.00094573,0.000944747,0.000943896,0.000943218,0.000942609,0.000940668,0.000943419,0.000820339,0.000701434,0.000568309,0.000392777,0.147231,0.147231,0.14724,0.14724,0.147245,0.147245,0.147261,0.147261,0.147261,0.147261,0.147261,0.147272,0.147272,0.147272,0.147283,0.147283,0.147294,0.147294,0.147294,0.147306,0.147306,0.147306,0.147318,0.147318,0.147318,0.147331,0.147331,0.147331,0.147345,0.147345,0.147345,0.147352,0.147359,0.147367,0.82372
1.50037,0.825474,0.143706,0.143706,0.143706,0.143706,0.143688,0.143688,0.143688,0.143665,0.143665,0.143665,0.143665,0.143665,0.143665,0.143665,0.143665,0.143652,0.143652,0.143652,0.143652,0.143633,0.143633,0.143633,0.143633,0.143633,0.143633,0.143633,0.143633,0.143633,0.143628,0.143628,0.143628,0.143628,0.143628,0.143628,0.00267138,0.00245759,0.00221823,0.00203373,0.00187973,0.00173983,0.00165873,0.00157137,0.00147894,0.00137636,0.00128692,0.00123617,0.0011956,0.00115894,0.00112493,0.00109986,0.00107698,0.0010564,0.00104026,0.00102624,0.00101296,0.00100215,0.000993228,0.000985457,0.000978755,0.000972958,0.000968592,0.000964103,0.000960595,0.000957366,0.00095471,0.000952664,0.000950685,0.000948928,0.000947488,0.000946321,0.000945182,0.000944329,0.000943564,0.000942888,0.000941636,0.000941763,0.000941395,0.000941024,0.000940719,0.000940942,0.000940226,0.000939963,0.000939811,0.000939888,0.000939485,0.00093906,0.000939361,0.000939312,0.00093924,0.000939556,0.00093914,0.000939043,0.000939013,0.000938557,0.00093896,0.00093898,0.000938957,0.000938937,0.000938921,0.000938909,0.000938899,0.000938889,0.000938914,0.000938888,0.000939062,0.000938764,0.00094573,0.00094573,0.000944747,0.000943952,0.000943218,0.000942609,0.000940668,0.000943419,0.000820339,0.000701434,0.000568309,0.000392777,0.000365753,0.147488,0.147488,0.147488,0.147499,0.147499,0.147499,0.14751,0.14751,0.14751,0.147522,0.147522,0.147522,0.147544,0.147544,0.147544,0.147544,0.147559,0.147559,0.147559,0.147567,0.147583,0.147583,0.147583,0.147599,0.147599,0.147599,0.147599,0.147613,0.147621,0.147621,0.147628,0.147628,0.147636,0.824709
1.50047,0.825821,0.143618,0.143616,0.143616,0.143616,0.143616,0.143616,0.143615,0.143615,0.143615,0.143615,0.143615,0.143615,0.143615,0.143615,0.143615,0.143615,0.143615,0.143615,0.143615,0.143615,0.143615,0.143621,0.143621,0.143621,0.143621,0.143621,0.143621,0.143621,0.143621,0.143621,0.143631,0.143631,0.143631,0.00281122,0.00267138,0.00245759,0.00222531,0.00203373,0.00188489,0.00174868,0.00165873,0.00157464,0.00147894,0.00138183,0.00129178,0.00123617,0.0011956,0.00115894,0.00112816,0.00109986,0.00107776,0.0010564,0.00104026,0.00102624,0.00101296,0.00100215,0.000993854,0.000985457,0.000978755,0.000973447,0.000968779,0.000964103,0.000960713,0.000957675,0.000954971,0.000952664,0.000950685,0.000948928,0.000947488,0.000946321,0.000945252,0.000944329,0.000943564,0.000942888,0.000941541,0.000941763,0.000941395,0.000941024,0.000940719,0.000941077,0.00094026,0.000939985,0.000939811,0.000939888,0.000939485,0.00093906,0.000939375,0.000939312,0.00093924,0.000939556,0.000939149,0.000939043,0.000939013,0.000938481,0.00093896,0.00093898,0.000938957,0.000938938,0.000938923,0.000938909,0.000938899,0.000938889,0.000938914,0.000938888,0.000939062,0.000938764,0.00094573,0.00094573,0.000944847,0.00094398,0.000943218,0.000942609,0.000940668,0.000945707,0.000820339,0.000701434,0.000578157,0.000395106,0.000365753,0.00037355,0.147791,0.147791,0.147791,0.147821,0.147821,0.147821,0.147821,0.147842,0.147842,0.147842,0.147842,0.147875,0.147887,0.147887,0.147887,0.147887,0.147923,0.147923,0.147923,0.147923,0.147948,0.147948,0.147948,0.147975,0.147975,0.147975,0.148002,0.148002,0.148016,0.148016,0.14803,0.148046,0.825774
1.50196,0.826274,0.143517,0.143518,0.143518,0.143518,0.143518,0.143518,0.143518,0.143518,0.143532,0.143532,0.143573,0.143573,0.143573,0.143573,0.143573,0.143573,0.143573,0.143573,0.143573,0.143596,0.143596,0.143596,0.143642,0.143642,0.143642,0.143642,0.143642,0.143642,0.143642,0.143642,0.143642,0.143642,0.00293799,0.00281122,0.00267138,0.00246555,0.00222531,0.00203968,0.00188489,0.00175315,0.00166149,0.00157464,0.00148222,0.00138731,0.00129412,0.00123617,0.00119718,0.00116031,0.00112816,0.00109986,0.00107776,0.0010564,0.00104073,0.00102624,0.00101296,0.00100273,0.000993854,0.000985982,0.000979448,0.000973447,0.000968779,0.000964382,0.000960832,0.000957675,0.000954971,0.00095274,0.000950685,0.000949096,0.000947488,0.000946321,0.000945287,0.000944329,0.000943564,0.000942888,0.000941541,0.000941763,0.000941395,0.000941024,0.000940719,0.000941077,0.00094026,0.000939985,0.000939811,0.00093973,0.000939485,0.00093906,0.000939375,0.000939312,0.00093924,0.000939556,0.000939149,0.000939043,0.000939013,0.000938481,0.00093896,0.00093898,0.000938957,0.000938938,0.000938923,0.00093891,0.000938899,0.00093889,0.00093911,0.000938888,0.000939062,0.000938764,0.00094573,0.00094573,0.000944847,0.00094398,0.000943218,0.000942609,0.000940949,0.000945707,0.000838088,0.000701434,0.000578157,0.000395106,0.000366324,0.00037355,0.000405594,0.148477,0.148477,0.14854,0.14854,0.148614,0.148614,0.148614,0.148729,0.148729,0.148729,0.148729,0.148729,0.148816,0.148816,0.14895,0.14895,0.14895,0.14895,0.149004,0.149111,0.149111,0.149111,0.149221,0.149221,0.149221,0.14934,0.14934,0.149459,0.149459,0.149524,0.149596,0.493223
1.50506,0.828473,0.143791,0.143791,0.143791,0.143815,0.143815,0.143815,0.143854,0.143854,0.143854,0.143854,0.143854,0.143854,0.143854,0.143881,0.143881,0.143881,0.143881,0.143881,0.143953,0.143953,0.143953,0.143953,0.143953,0.143953,0.143953,0.143953,0.143953,0.143953,0.143953,0.143984,0.144065,0.00306224,0.00293799,0.00281122,0.00268819,0.00247352,0.00223238,0.00203968,0.00188489,0.00175315,0.00166149,0.00157791,0.00148222,0.00138731,0.00129412,0.00124108,0.00119718,0.00116031,0.00112816,0.00110086,0.00107776,0.00105812,0.00104073,0.00102668,0.00101385,0.00100273,0.000993854,0.000986244,0.000979448,0.000973625,0.000968779,0.000964521,0.000960832,0.000957675,0.000955058,0.00095274,0.000950685,0.000949096,0.000947629,0.000946321,0.000945287,0.000944329,0.000943564,0.000942888,0.000941541,0.000941763,0.000941395,0.000941024,0.000940719,0.000941077,0.000940271,0.000939985,0.000939811,0.00093973,0.000939485,0.00093906,0.000939375,0.000939312,0.000939246,0.000939556,0.000939159,0.000939046,0.000939013,0.000938481,0.000938951,0.000938981,0.000938957,0.000938938,0.000938923,0.00093891,0.000938899,0.00093889,0.000939143,0.000938898,0.000939062,0.000938764,0.00094573,0.00094573,0.000944847,0.000944009,0.000943218,0.000942609,0.000940949,0.000945707,0.000838088,0.000704171,0.000578157,0.000396813,0.000366895,0.00037355,0.000405594,0.000458742,0.150944,0.151237,0.151237,0.151237,0.151237,0.15134,0.151443,0.151546,0.151649,0.151649,0.151762,0.151878,0.151995,0.152111,0.152228,0.152353,0.152482,0.152482,0.152611,0.15274,0.152869,0.153005,0.153144,0.153283,0.153421,0.15356,0.15356,0.153707,0.153857,0.154008,0.839106
1.50994,0.831581,0.144259,0.144296,0.144296,0.144296,0.144296,0.144358,0.144358,0.144358,0.144358,0.144358,0.144358,0.144358,0.144402,0.144402,0.144402,0.144402,0.144532,0.144532,0.144532,0.144532,0.144532,0.144532,0.144532,0.144532,0.144532,0.144532,0.144596,0.144596,0.144596,0.144596,0.00319084,0.00306224,0.00293799,0.00281122,0.00268819,0.00247352,0.00223238,0.00204563,0.00188489,0.00175315,0.00166425,0.00157791,0.00148551,0.00138731,0.00129412,0.00124108,0.00119718,0.00116031,0.00112816,0.00110086,0.00107776,0.00105812,0.00104073,0.00102668,0.00101432,0.00100331,0.000993854,0.000986244,0.000979448,0.000973625,0.000968779,0.000964521,0.000960832,0.000957675,0.000955058,0.00095274,0.000950685,0.000949096,0.000947629,0.000946321,0.000945322,0.000944388,0.000943564,0.000942929,0.000941541,0.000941763,0.000941395,0.00094106,0.000940719,0.000941077,0.000940271,0.000939985,0.000939811,0.000939572,0.000939463,0.00093906,0.00093938,0.000939312,0.000939246,0.000939556,0.000939159,0.000939046,0.000939013,0.000938379,0.000938934,0.000938981,0.000938957,0.000938938,0.000938923,0.00093891,0.000938899,0.00093889,0.000939143,0.000938903,0.000939062,0.000938764,0.00094573,0.00094573,0.000944847,0.000944009,0.000943266,0.000942609,0.000940949,0.000945707,0.000838088,0.000704171,0.000588005,0.000397538,0.000366895,0.000372903,0.000404279,0.000454464,0.000521475,0.000618847,0.158075,0.158075,0.158075,0.15853,0.159251,0.159251,0.159251,0.159251,0.159995,0.159995,0.159995,0.159995,0.160759,0.161022,0.161022,0.16129,0.161558,0.161826,0.161826,0.162373,0.162373,0.162661,0.162661,0.162948,0.163235,0.163522,0.163522,0.163817,0.893252
1.51877,0.835664,0.145824,0.145824,0.145824,0.146036,0.146036,0.146036,0.146036,0.146267,0.146267,0.146267,0.146267,0.146497,0.146497,0.146497,0.146497,0.14676,0.14676,0.14676,0.14676,0.147024,0.147024,0.147024,0.147024,0.147325,0.147325,0.147325,0.147325,0.14767,0.14767,0.00331066,0.00319999,0.00306938,0.00294629,0.00281893,0.00268819,0.00248148,0.00223947,0.00204563,0.00188489,0.00175315,0.00166425,0.00158112,0.00148879,0.00138731,0.00129412,0.00124108,0.00119718,0.00116031,0.00112816,0.00110086,0.00107776,0.00105812,0.00104073,0.00102668,0.00101432,0.00100331,0.000993854,0.000986244,0.000979671,0.000973803,0.000968779,0.000964659,0.00096095,0.000957675,0.000955058,0.00095274,0.000950816,0.000949096,0.000947675,0.00094641,0.000945357,0.000944419,0.000943643,0.000942952,0.000941541,0.000941791,0.000941421,0.00094106,0.000940719,0.000941077,0.000940271,0.000939985,0.000939829,0.000939572,0.000939365,0.000938994,0.00093938,0.000939312,0.000939246,0.000939556,0.000939168,0.000939046,0.000939016,0.000938379,0.000938934,0.000938981,0.000938957,0.000938938,0.000938923,0.00093891,0.0009389,0.00093889,0.000939143,0.000938903,0.000939308,0.000938764,0.00094573,0.00094573,0.000944847,0.000944009,0.00094329,0.00094265,0.000941229,0.000945707,0.000838088,0.000706908,0.000588005,0.000397538,0.000368036,0.000372903,0.000401568,0.000454464,0.000515832,0.000618847,0.000823571,0.175996,0.175996,0.175996,0.175996,0.175996,0.176739,0.176739,0.176739,0.176739,0.176739,0.176739,0.176739,0.177853,0.177853,0.177853,0.177853,0.177853,0.178225,0.178225,0.178225,0.178225,0.178225,0.178225,0.178225,0.178597,0.178597,0.178597,0.955447
1.59145,0.520273,0.152345,0.152345,0.152345,0.153073,0.153073,0.153073,0.153073,0.153801,0.153801,0.153801,0.153801,0.154592,0.154592,0.154592,0.154592,0.155386,0.155386,0.155386,0.155386,0.156203,0.156203,0.158352,0.158352,0.158352,0.158352,0.158352,0.158352,0.158352,0.00340764,0.00331066,0.00319999,0.00306938,0.00294629,0.00281893,0.00268819,0.00248148,0.00223947,0.00205164,0.00188489,0.00175315,0.00166425,0.00158112,0.00148879,0.00138731,0.00129599,0.00124108,0.00119718,0.00116031,0.00112816,0.0011028,0.00107776,0.0010588,0.00104073,0.00102668,0.00101432,0.00100389,0.000993854,0.000986244,0.000979671,0.000973803,0.000968779,0.000964659,0.00096095,0.000957675,0.000955144,0.00095274,0.000950882,0.000949096,0.000947675,0.00094641,0.000945357,0.000944419,0.000943643,0.000942952,0.000941349,0.000941791,0.000941434,0.00094106,0.000940751,0.000941077,0.000940271,0.000939985,0.000939829,0.000939572,0.000939365,0.000938961,0.00093938,0.000939316,0.000939246,0.000939556,0.000939168,0.000939051,0.000939016,0.000938379,0.000938934,0.000938981,0.000938958,0.000938938,0.000938924,0.00093891,0.0009389,0.00093889,0.000939175,0.000938903,0.000939308,0.000938764,0.00094573,0.00094573,0.000944847,0.000944009,0.00094329,0.00094265,0.00094151,0.000945408,0.000843838,0.000706908,0.000588005,0.000397538,0.000368036,0.000372903,0.000401568,0.000454464,0.000513189,0.000611717,0.000817618,0.00134899,0.210482,0.20836,0.207937,0.207937,0.206664,0.205385,0.205385,0.203714,0.203714,0.202877,0.201585,0.201585,0.201585,0.201585,0.200307,0.199886,0.199465,0.199465,0.199044,0.198628,0.198628,0.198218,0.197807,0.197807,0.197397,0.196987,1.12498
1.7446,0.984227,0.166717,0.167245,0.167245,0.167245,0.168882,0.168882,0.168882,0.168882,0.171671,0.171671,0.171671,0.171671,0.171671,0.171671,0.17447,0.17447,0.17447,0.17447,0.17447,0.178449,0.179025,0.179025,0.179618,0.180809,0.181404,0.186708,0.186708,0.0035565,0.00340764,0.0033128,0.00320914,0.00306938,0.00294629,0.00281893,0.00268819,0.00248148,0.00223947,0.00205164,0.00189449,0.00176211,0.00166701,0.00158432,0.00148879,0.00138731,0.00129599,0.00124108,0.00119718,0.00116304,0.00113032,0.0011028,0.00107933,0.0010588,0.00104211,0.00102668,0.00101432,0.00100389,0.00099451,0.000986244,0.000979894,0.000973981,0.000969102,0.000964659,0.00096095,0.000957885,0.000955144,0.00095274,0.000950882,0.000949215,0.000947722,0.000946459,0.000945357,0.000944451,0.000943643,0.000942952,0.000941349,0.000941814,0.000941434,0.00094106,0.000940751,0.000941346,0.000940271,0.000940001,0.000939829,0.000939572,0.000939283,0.000938961,0.00093938,0.000939319,0.000939246,0.000939805,0.000939168,0.000939051,0.000939016,0.000938379,0.000938934,0.000938981,0.000938958,0.000938938,0.000938924,0.00093891,0.0009389,0.00093889,0.000939175,0.000938903,0.000939308,0.000938764,0.00094573,0.00094573,0.000944914,0.000944009,0.000943314,0.000942671,0.00094151,0.000945408,0.000843838,0.000706908,0.000588005,0.000398263,0.000368036,0.000372903,0.000401568,0.000454464,0.000513189,0.000611717,0.000800061,0.00113691,0.248525,0.26857,0.263259,0.260354,0.253394,0.248547,0.245996,0.241551,0.239286,0.236545,0.234751,0.232947,0.23106,0.229173,0.227657,0.226865,0.22487,0.224467,0.223268,0.222477,0.22087,0.220058,0.219239,0.218416,0.21759,0.217167,1.21233
1.93568,1.04128,0.185539,0.186708,0.186708,0.187292,0.187876,0.190268,0.190268,0.190268,0.192664,0.192664,0.195697,0.19692,0.19692,0.19692,0.201672,0.201672,0.203479,0.205251,0.207598,0.211655,0.212224,0.215055,0.2199,0.224169,0.228031,0.251661,0.00438286,0.0035565,0.00341783,0.0033128,0.00320914,0.00306938,0.00294629,0.00282316,0.00269379,0.00248944,0.00223947,0.00205765,0.00189926,0.00176211,0.00166701,0.00158432,0.00149207,0.00139826,0.00129786,0.00124108,0.00120026,0.00116304,0.00113032,0.0011028,0.00108011,0.00105949,0.00104211,0.00102765,0.00101432,0.00100389,0.000994837,0.00098677,0.000979894,0.000973981,0.000969241,0.000964659,0.00096095,0.00095799,0.000955144,0.000952892,0.000950882,0.000949215,0.000947722,0.000946459,0.000945392,0.000944451,0.000943643,0.000942952,0.000941253,0.000941838,0.000941434,0.00094106,0.000940751,0.000941326,0.000940271,0.000940001,0.000939835,0.000939572,0.000939283,0.000938928,0.000939395,0.000939319,0.000939246,0.000939929,0.000939168,0.000939051,0.000939016,0.000938168,0.000938934,0.000938981,0.000938958,0.000938939,0.000938924,0.000938911,0.0009389,0.00093889,0.000939207,0.000938903,0.000939308,0.000938764,0.00094573,0.00094573,0.000944947,0.000944067,0.000943314,0.000942671,0.00094179,0.000945408,0.000849413,0.000709645,0.000594362,0.000398263,0.000368036,0.000372903,0.000401568,0.000454464,0.000513189,0.000611717,0.000794621,0.00111145,0.12328,0.249645,0.252673,0.269631,0.267356,0.265384,0.263736,0.262225,0.261128,0.260282,0.259466,0.260745,0.253446,0.253664,0.252705,0.250612,0.248547,0.246808,0.245709,0.243952,0.242465,0.24092,0.239952,0.238618,0.237252,0.236185,1.26173
2.14054,1.2,0.205251,0.207013,0.207598,0.209923,0.211078,0.212224,0.215055,0.215055,0.21617,0.2199,0.221547,0.224169,0.224169,0.228031,0.227989,0.229353,0.236191,0.240941,0.241625,0.248297,0.251303,0.251718,0.251806,0.252193,0.25096,0.247869,0.00407446,0.0035565,0.00341783,0.0033128,0.00321829,0.00307653,0.00294629,0.00282316,0.00269869,0.00249721,0.0022614,0.00205765,0.00190403,0.00176211,0.00167006,0.00158432,0.00149207,0.00140189,0.00129786,0.00124108,0.00120176,0.00116441,0.00113131,0.0011028,0.00108106,0.00105949,0.00104211,0.00102818,0.00101432,0.00100389,0.000994837,0.00098677,0.000979894,0.000974159,0.000969241,0.000964659,0.000961199,0.00095799,0.000955335,0.000952967,0.000950948,0.000949215,0.000947772,0.000946508,0.000945392,0.000944451,0.000943643,0.000942952,0.000941158,0.000941838,0.000941434,0.00094106,0.000940751,0.000941326,0.000940293,0.000940001,0.000939835,0.000939198,0.0009392,0.000938928,0.000939404,0.000939319,0.000939251,0.000939929,0.00093918,0.000939051,0.000939016,0.000938168,0.000938923,0.000938981,0.000938958,0.00093894,0.000938924,0.000938911,0.0009389,0.000938891,0.000939207,0.000938903,0.000939308,0.000938764,0.00094573,0.00094573,0.000944947,0.000944096,0.000943339,0.000942691,0.00094179,0.000945408,0.000849413,0.000709645,0.000594362,0.000398989,0.000368036,0.000372903,0.000401568,0.000450117,0.000510698,0.000611717,0.000789181,0.00107129,0.0407885,0.245715,0.249805,0.252432,0.27387,0.269806,0.268519,0.267063,0.265835,0.264758,0.263736,0.26281,0.262116,0.261391,0.260716,0.26021,0.259655,0.259178,0.259405,0.26095,0.256464,0.253087,0.253664,0.253051,0.252173,0.250841,1.3701
2.3319,1.31521,0.224674,0.226638,0.228031,0.229617,0.227989,0.229353,0.231633,0.233579,0.238726,0.24094,0.240941,0.243776,0.246522,0.248297,0.249831,0.251303,0.25174,0.251718,0.251658,0.251858,0.252142,0.252137,0.251518,0.250098,0.248163,0.163146,0.00487505,0.0035565,0.00341783,0.00331711,0.00322764,0.00308011,0.0029585,0.00282316,0.00270348,0.00251273,0.0022614,0.00206366,0.00190403,0.00176211,0.00167006,0.00158753,0.00149207,0.00140189,0.00129973,0.00124599,0.00120176,0.00116441,0.00113131,0.0011028,0.00108106,0.00105949,0.00104257,0.00102818,0.00101527,0.00100492,0.000995165,0.000987036,0.000979894,0.000974356,0.00096938,0.000964937,0.000961199,0.000958095,0.000955335,0.000952967,0.000951014,0.000949215,0.000947823,0.000946508,0.000945392,0.000944451,0.000943643,0.000942976,0.000941158,0.000941838,0.000941434,0.000941085,0.000940751,0.000941326,0.000940304,0.000940001,0.000939835,0.000939198,0.0009392,0.000938928,0.000939404,0.000939319,0.000939251,0.000939929,0.00093918,0.000939051,0.000939019,0.000938062,0.000938923,0.000938981,0.000938959,0.00093894,0.000938924,0.000938911,0.0009389,0.000938891,0.000939207,0.000938897,0.000939308,0.000938764,0.00094573,0.00094573,0.000944981,0.000944096,0.000943339,0.000942691,0.00094179,0.000945408,0.000849413,0.000712382,0.000602178,0.000398989,0.000368036,0.000372903,0.000398824,0.000450117,0.000510698,0.000608018,0.000783741,0.00106109,0.0276518,0.192566,0.248193,0.249957,0.251872,0.252673,0.272174,0.269878,0.269027,0.267978,0.266962,0.266062,0.265246,0.264503,0.263736,0.26312,0.262518,0.262027,0.261456,0.260965,0.260626,0.26021,0.259803,0.259466,0.259056,0.259134,1.40121
2.48767,1.36614,0.240412,0.240836,0.240941,0.241625,0.24349,0.245112,0.246522,0.248297,0.249469,0.250477,0.251181,0.251512,0.251746,0.251718,0.251655,0.251718,0.251895,0.252095,0.252198,0.252086,0.251686,0.250925,0.249628,0.248242,0.226981,0.0990978,0.0082271,0.00354717,0.00341783,0.00331711,0.00322764,0.00308011,0.0029585,0.00283601,0.00270348,0.00251273,0.0022614,0.00206366,0.00190403,0.00177065,0.00167313,0.00158753,0.00149207,0.00140543,0.00129973,0.00124599,0.00120327,0.00116441,0.00113131,0.00110377,0.00108106,0.00105949,0.0010432,0.00102818,0.00101575,0.00100492,0.000995165,0.000987301,0.000979894,0.000974356,0.00096938,0.000965071,0.000961324,0.000958095,0.000955335,0.000953043,0.000951014,0.000949215,0.000947823,0.000946508,0.000945392,0.000944451,0.000943697,0.000942976,0.000941303,0.000941838,0.00094146,0.000941098,0.000940751,0.000941326,0.000940304,0.000940014,0.000939835,0.000939198,0.0009392,0.000938928,0.000939404,0.000939319,0.000939251,0.000939929,0.000939185,0.000939056,0.000939019,0.000937956,0.000938923,0.000938981,0.000938959,0.00093894,0.000938925,0.000938911,0.000938901,0.000938891,0.000939207,0.000938893,0.000939446,0.000938764,0.000938764,0.00094573,0.000944981,0.000944096,0.000943339,0.000942712,0.00094179,0.000945259,0.000849413,0.000712382,0.000602178,0.000398989,0.000368126,0.000372802,0.000398824,0.000450117,0.000508206,0.000608018,0.000768563,0.00104072,0.0165355,0.144331,0.240667,0.248579,0.250051,0.251566,0.252673,0.273076,0.271658,0.269955,0.269297,0.268519,0.267673,0.266912,0.266155,0.265553,0.264955,0.264383,0.263736,0.263259,0.26281,0.262353,0.261934,0.261519,0.261161,0.260807,1.40855
2.54628,1.40485,0.246899,0.24813,0.248777,0.249831,0.250558,0.251181,0.251512,0.25174,0.251744,0.2517,0.251661,0.251669,0.251749,0.251895,0.252077,0.252176,0.252188,0.252057,0.251759,0.251213,0.25041,0.249328,0.248304,0.242347,0.176826,0.061332,0.0082271,0.00354717,0.00341783,0.00331711,0.00322764,0.00308011,0.0029585,0.00283601,0.00270348,0.00251273,0.0022614,0.00206967,0.0019088,0.00177065,0.00167313,0.00158753,0.00149207,0.00140896,0.0013016,0.00124599,0.00120327,0.00116441,0.00113131,0.0011057,0.00108106,0.00105949,0.0010432,0.00102818,0.00101575,0.00100492,0.000995165,0.000987301,0.000980341,0.000974356,0.000969519,0.000965071,0.000961324,0.000958095,0.000955335,0.000953124,0.000951014,0.000949275,0.000947823,0.000946557,0.000945392,0.000944513,0.000943697,0.000943024,0.000941303,0.000941838,0.000941475,0.000941098,0.000940772,0.000941326,0.000940304,0.000940014,0.000939835,0.000939198,0.000939117,0.000938928,0.000939404,0.000939324,0.000939251,0.000939929,0.000939185,0.000939056,0.000939019,0.000937956,0.00093892,0.000938981,0.00093896,0.00093894,0.000938925,0.000938912,0.000938901,0.000938891,0.000939195,0.000938893,0.000939446,0.000938764,0.000938764,0.00094573,0.000944981,0.000944096,0.000943339,0.000942712,0.000942026,0.000945259,0.000854988,0.000716682,0.000602178,0.000399714,0.000368126,0.000372802,0.000398824,0.000450117,0.000508206,0.000608018,0.000768563,0.00103055,0.0126832,0.105768,0.209824,0.248124,0.248814,0.250051,0.251329,0.252432,0.272871,0.276253,0.271184,0.269995,0.269498,0.268851,0.268156,0.267513,0.266862,0.266285,0.265768,0.265246,0.264735,0.264262,0.26384,0.263365,0.262981,0.262576,2.57333
2.55829,2.55938,0.835729,0.25148,0.251683,0.25174,0.251741,0.2517,0.251663,0.251655,0.251689,0.251806,0.251927,0.252045,0.252142,0.252194,0.252163,0.252032,0.251759,0.251388,0.250787,0.250098,0.249168,0.248366,0.24717,0.214191,0.135003,0.0410681,0.0082271,0.00354717,0.00342973,0.0033193,0.00322764,0.00308011,0.0029585,0.00283601,0.00270827,0.00251273,0.0022614,0.00206967,0.0019088,0.00177065,0.0016762,0.00158753,0.00149869,0.00140896,0.0013016,0.00124599,0.00120327,0.00116441,0.00113131,0.0011057,0.00108106,0.00106087,0.0010432,0.00102818,0.00101623,0.00100492,0.000995165,0.000987301,0.000980341,0.000974356,0.000969519,0.000965071,0.000961324,0.000958095,0.000955526,0.000953124,0.000951014,0.000949275,0.000947823,0.000946557,0.000945464,0.000944544,0.000943724,0.000943024,0.000941303,0.000941838,0.000941475,0.000941098,0.000940783,0.000941229,0.000940304,0.000940021,0.000939846,0.000939198,0.000939117,0.000939183,0.000939404,0.000939324,0.000939255,0.000940031,0.000939185,0.000939056,0.000939019,0.000937999,0.000938917,0.000938981,0.00093896,0.000938941,0.000938925,0.000938912,0.000938901,0.000938891,0.000939195,0.000938893,0.000939446,0.000938764,0.000938764,0.00094573,0.000944981,0.000944096,0.000943339,0.000942733,0.000942088,0.000944637,0.000854988,0.000716682,0.000602178,0.000399714,0.000368126,0.000372702,0.000398824,0.000450117,0.000508206,0.000604082,0.000768563,0.00102129,0.00848125,0.0714114,0.171885,0.238268,0.248193,0.249,0.250096,0.251173,0.252125,0.252673,0.273057,0.274755,0.271009,0.270012,0.269579,0.26908,0.268519,0.26792,0.267356,0.266828,0.266357,0.265891,0.265436,0.264998,0.264597,0.842953,2.58361
2.56401,2.56568,1.41325,0.251709,0.251672,0.251655,0.251669,0.251723,0.251806,0.251927,0.25203,0.252131,0.252185,0.252193,0.252137,0.252015,0.251827,0.251518,0.25109,0.250515,0.249817,0.249108,0.24839,0.248047,0.231011,0.183009,0.106224,0.0310027,0.00666683,0.00354717,0.00343365,0.0033193,0.00322764,0.00308011,0.0029585,0.00283601,0.00271305,0.00252049,0.0022614,0.00207568,0.00191297,0.00177481,0.0016762,0.00159393,0.00150204,0.00140896,0.00130347,0.00124599,0.00120327,0.001167,0.00113328,0.0011057,0.00108106,0.00106087,0.0010432,0.00102924,0.00101623,0.00100492,0.000995869,0.000987567,0.000980564,0.000974356,0.000969519,0.000965205,0.000961324,0.000958095,0.000955526,0.000953124,0.000951014,0.000949392,0.000947823,0.000946557,0.0009455,0.000944544,0.000943724,0.000943024,0.000941303,0.000941885,0.000941475,0.000941098,0.000940783,0.000941229,0.000940304,0.000940021,0.000939846,0.000939159,0.000939117,0.000939183,0.00093942,0.000939327,0.000939255,0.000939977,0.000939185,0.000939056,0.000939022,0.000937999,0.000938917,0.000938981,0.000938961,0.000938941,0.000938925,0.000938913,0.000938901,0.000938891,0.000939195,0.000938893,0.000939446,0.000938764,0.000938764,0.00094573,0.000944981,0.000944154,0.000943389,0.000942733,0.000942088,0.000944637,0.000860563,0.000716682,0.000602178,0.000399714,0.000367604,0.000372702,0.000398824,0.00044582,0.000505715,0.000601887,0.000763891,0.00100325,0.00696354,0.0529996,0.145856,0.218102,0.247611,0.248371,0.249183,0.250126,0.251076,0.251887,0.252616,0.272547,0.276877,0.273624,0.270894,0.270012,0.26965,0.269234,0.268769,0.268252,0.267767,0.267276,0.266811,0.266393,0.265986,0.846019,2.59151
2.57039,2.572,1.41706,0.251689,0.251749,0.251829,0.251927,0.25201,0.252111,0.252172,0.252194,0.252185,0.25212,0.252015,0.251827,0.251589,0.251255,0.250787,0.250269,0.249628,0.249005,0.248423,0.248056,0.240467,0.207183,0.15155,0.0833607,0.0229545,0.00547463,0.00354717,0.00343365,0.00332149,0.00323216,0.00308543,0.0029665,0.00283601,0.00271305,0.00252049,0.00226871,0.00207568,0.00191297,0.00177481,0.00167926,0.00159393,0.00150204,0.00141249,0.00130511,0.00124925,0.00120327,0.001167,0.00113426,0.0011057,0.00108301,0.00106155,0.0010432,0.00102924,0.00101623,0.00100542,0.000995869,0.000987567,0.000980797,0.000974757,0.000969657,0.000965205,0.000961573,0.000958311,0.000955526,0.000953124,0.000951146,0.000949392,0.000947925,0.000946557,0.0009455,0.000944544,0.000943751,0.000943024,0.000941715,0.000941909,0.000941489,0.000941098,0.000940783,0.00094118,0.000940313,0.000940028,0.000939852,0.000939159,0.000939117,0.000939321,0.00093942,0.000939327,0.000939255,0.000939977,0.000939185,0.000939059,0.000939022,0.000937999,0.000938917,0.000938982,0.000938961,0.000938941,0.000938926,0.000938913,0.000938901,0.000938892,0.000939195,0.000938893,0.000939242,0.000938764,0.000938764,0.00094573,0.000945049,0.000944184,0.000943415,0.000942733,0.000942088,0.000944637,0.000860563,0.000716682,0.000602178,0.000400209,0.000367604,0.000372501,0.000396121,0.00044582,0.000503224,0.000601887,0.000749761,0.000994214,0.0050777,0.0414823,0.121862,0.192566,0.236222,0.24805,0.248561,0.249301,0.250171,0.25099,0.251741,0.252387,0.252673,0.273048,0.276988,0.272845,0.270753,0.270036,0.269706,0.269358,0.26895,0.268519,0.268064,0.267609,0.267194,1.43049,2.59724
2.57557,2.57682,1.41971,0.251927,0.25201,0.252095,0.252142,0.252185,0.252196,0.252169,0.252105,0.252015,0.251851,0.251632,0.251388,0.251017,0.250551,0.250098,0.249514,0.248928,0.248423,0.248074,0.24432,0.223711,0.183009,0.128397,0.067697,0.0169352,0.00547463,0.00353783,0.00343365,0.00332582,0.00323216,0.00309661,0.0029665,0.00284029,0.00271785,0.00252049,0.00227602,0.00208216,0.00191712,0.00177481,0.00167926,0.0015971,0.00150538,0.00141249,0.00130511,0.00124925,0.00120628,0.00116823,0.00113426,0.00110663,0.00108301,0.00106236,0.00104454,0.00102977,0.00101623,0.00100542,0.000995869,0.000987833,0.000980797,0.000974757,0.000969657,0.000965338,0.000961573,0.00095842,0.000955526,0.000953124,0.000951146,0.000949392,0.000947925,0.000946639,0.000945536,0.000944544,0.000943751,0.000943024,0.000941715,0.000941909,0.000941504,0.000941123,0.000940783,0.00094118,0.000940313,0.000940028,0.000939852,0.000939139,0.000938919,0.000939321,0.000939427,0.00093933,0.000939255,0.000939977,0.000939195,0.000939059,0.000939022,0.000937999,0.000938914,0.000938982,0.000938961,0.000938941,0.000938926,0.000938913,0.000938901,0.000938892,0.000939047,0.000938884,0.000939242,0.000938764,0.000938764,0.00094573,0.000945049,0.000944184,0.000943415,0.000942777,0.000942088,0.000944637,0.000866139,0.000716682,0.000606086,0.000400209,0.000366559,0.000372501,0.000396121,0.00044582,0.000498391,0.000599693,0.0007449,0.000989694,0.00353948,0.0355186,0.0995998,0.167498,0.220173,0.246191,0.248168,0.24871,0.249392,0.250171,0.250922,0.251614,0.252205,0.252673,0.272437,0.272129,0.275801,0.272342,0.27065,0.27006,0.269757,0.269456,0.269101,0.268721,1.43382,2.60218,2.60116
2.57902,2.57985,2.58054,0.252135,0.252176,0.252194,0.252191,0.25216,0.252086,0.252009,0.251875,0.251677,0.251443,0.25117,0.250787,0.25041,0.249923,0.249405,0.248876,0.248423,0.248107,0.247097,0.232857,0.203028,0.160815,0.109805,0.0540416,0.0134386,0.000251982,0.00353783,0.00343365,0.00332582,0.00323216,0.00309661,0.0029665,0.00284029,0.00271785,0.00252825,0.00228563,0.00208216,0.00191712,0.00177896,0.00168233,0.0015971,0.00150538,0.00141249,0.00130673,0.00124925,0.00120767,0.00116823,0.00113524,0.00110663,0.00108301,0.00106236,0.00104454,0.00102977,0.00101623,0.00100635,0.000995869,0.000987833,0.000981031,0.000974757,0.000969657,0.000965338,0.000961698,0.00095842,0.000955526,0.000953286,0.000951212,0.00094945,0.000947925,0.000946639,0.000945536,0.000944544,0.000943751,0.000943071,0.000941715,0.000941939,0.000941504,0.000941123,0.000940783,0.000941131,0.00094031,0.000940028,0.000939858,0.000939139,0.000938794,0.000939459,0.000939427,0.00093933,0.000939255,0.000939923,0.000939195,0.000939059,0.000939022,0.000937999,0.000938914,0.000938983,0.000938961,0.000938942,0.000938926,0.000938913,0.000938901,0.000938892,0.000939047,0.000938884,0.000939242,0.000938764,0.000938764,0.00094573,0.000945083,0.000944184,0.00094344,0.000942777,0.000942088,0.000943828,0.000866139,0.000716682,0.000606086,0.000400209,0.000366559,0.000372501,0.000396121,0.00044582,0.000498391,0.000599693,0.000740039,0.000974177,0.00316919,0.0276518,0.0834687,0.145856,0.202126,0.236222,0.248124,0.24831,0.248835,0.249461,0.250171,0.250829,0.251468,0.25203,0.25254,0.252673,0.272547,0.277422,0.27493,0.271942,0.270622,0.27006,0.26979,0.269522,1.43457,2.604,2.60344
2.58093,2.58137,2.58158,1.42209,0.252182,0.252144,0.252086,0.251977,0.251875,0.251706,0.251518,0.251255,0.25096,0.250626,0.250244,0.249779,0.249328,0.248876,0.248447,0.248152,0.247869,0.2386,0.219506,0.184584,0.140426,0.0920686,0.0466332,0.0108804,0.000251982,0.00353783,0.00343561,0.00332582,0.00323216,0.00309661,0.0029665,0.00284441,0.00271785,0.00253537,0.00228563,0.00208866,0.00192128,0.00177896,0.00168233,0.00160027,0.00150538,0.00141249,0.00130673,0.00124925,0.00120767,0.00116946,0.00113524,0.00110755,0.00108301,0.00106236,0.00104454,0.0010303,0.0010172,0.00100635,0.000996246,0.000987833,0.000981031,0.000974757,0.000969778,0.000965338,0.000961698,0.00095842,0.000955716,0.000953286,0.000951283,0.00094945,0.000947925,0.000946639,0.000945536,0.000944609,0.000943751,0.000943071,0.000941715,0.000941939,0.000941504,0.000941135,0.000940805,0.000941037,0.00094031,0.000940028,0.000939858,0.000939139,0.000938794,0.000939459,0.000939427,0.000939333,0.00093926,0.000939869,0.000939195,0.000939059,0.000939023,0.000938176,0.000938914,0.000938983,0.000938961,0.000938942,0.000938926,0.000938913,0.000938902,0.000938892,0.000939047,0.000938864,0.000939242,0.000938764,0.000938764,0.00094573,0.000945083,0.000944214,0.00094344,0.000942777,0.000942212,0.000943828,0.000866139,0.000718631,0.000609994,0.000400875,0.000366559,0.000372501,0.000396121,0.00044582,0.000498391,0.000599693,0.000740039,0.000962506,0.00235489,0.0206514,0.0677196,0.129703,0.184488,0.223151,0.244793,0.248038,0.24843,0.248942,0.249532,0.250171,0.250814,0.2514,0.251918,0.252387,0.252673,0.273391,0.273818,0.277196,0.274116,0.27173,0.270567,0.849449,2.60418,2.6044,2.60438
2.58163,2.58161,2.58142,2.581,0.252071,0.251984,0.251875,0.251726,0.25156,0.251335,0.25109,0.250787,0.250463,0.250098,0.249666,0.249257,0.248826,0.248447,0.248163,0.248047,0.24311,0.226981,0.203028,0.166001,0.123598,0.0788163,0.0392074,0.00888464,0.000251982,0.00353783,0.00343561,0.00332582,0.00323216,0.00309661,0.0029744,0.00284441,0.00272272,0.00253537,0.00229556,0.00208866,0.00192128,0.00178312,0.00168233,0.00160027,0.00150538,0.00141905,0.00130673,0.00125088,0.00120767,0.00116946,0.00113638,0.00110755,0.00108497,0.00106236,0.00104454,0.0010303,0.00101768,0.00100635,0.000996246,0.000987833,0.000981031,0.000975158,0.000969778,0.000965338,0.000961698,0.00095842,0.000955716,0.000953286,0.000951283,0.000949508,0.000947975,0.000946717,0.000945572,0.000944609,0.000943805,0.000943094,0.000941715,0.000941939,0.000941504,0.000941135,0.000940805,0.000941037,0.000940308,0.000940028,0.000939858,0.000939139,0.000938794,0.000939597,0.000939427,0.000939333,0.00093926,0.000939869,0.000939195,0.000939062,0.000939025,0.000938176,0.000938914,0.000938984,0.000938961,0.000938942,0.000938926,0.000938913,0.000938902,0.000938892,0.000939047,0.000938839,0.000939004,0.000938764,0.000938764,0.00094573,0.000945083,0.000944214,0.00094344,0.000942777,0.000942212,0.000943828,0.000871708,0.000718631,0.000609994,0.000400875,0.000366559,0.000372501,0.000396121,0.000443794,0.000498391,0.000595305,0.000725451,0.000951088,0.00185285,0.016886,0.0570108,0.112592,0.163822,0.207508,0.236222,0.247893,0.248162,0.248561,0.249046,0.249603,0.250187,0.250749,0.251293,0.251807,0.252269,0.252659,0.252673,0.273391,0.276647,0.276447,0.273551,1.43347,2.60291,2.60368,2.60415
2.58133,2.58086,2.58028,2.5794,1.42067,0.251751,0.251589,0.251407,0.25117,0.250925,0.250639,0.250319,0.249961,0.249589,0.249214,0.248826,0.24847,0.248189,0.24805,0.24523,0.233742,0.214191,0.186126,0.149206,0.109805,0.0693409,0.0322364,0.0079751,0.000251982,0.00352849,0.00343735,0.0033298,0.0032376,0.0031022,0.0029744,0.00285265,0.00272272,0.00254246,0.00229556,0.00209515,0.00192543,0.0017873,0.00168508,0.00160343,0.00150538,0.00141905,0.00130673,0.00125252,0.00120906,0.00117069,0.00113638,0.00110848,0.00108497,0.00106401,0.00104588,0.0010303,0.00101768,0.0010066,0.000996622,0.000988377,0.000981031,0.000975158,0.000969836,0.000965606,0.000961823,0.00095842,0.000955716,0.000953286,0.000951283,0.000949565,0.000948027,0.000946717,0.000945572,0.000944641,0.000943805,0.000943094,0.000942126,0.000941939,0.000941504,0.000941135,0.000940815,0.000941037,0.000940308,0.000940041,0.000939858,0.000939216,0.000938794,0.000939597,0.000939427,0.000939336,0.000939262,0.000939869,0.000939182,0.000939062,0.000939025,0.000938264,0.000938917,0.000938984,0.000938962,0.000938942,0.000938926,0.000938913,0.000938902,0.000938892,0.000938915,0.000938839,0.000939004,0.000938764,0.000938764,0.00094573,0.000945083,0.000944214,0.00094344,0.000942824,0.000942212,0.000942209,0.000871708,0.000718631,0.000618366,0.000400875,0.000366559,0.000372501,0.000394869,0.000443794,0.000498391,0.000595305,0.000725451,0.000940275,0.00156397,0.0154525,0.0483298,0.0995998,0.149658,0.192566,0.223151,0.243716,0.248088,0.248271,0.248655,0.249119,0.249645,0.250202,0.250733,0.251232,0.251709,0.252141,0.252524,0.252673,0.27304,0.272547,0.277442,2.59916,2.60074,2.60201,2.60294
2.58015,2.57931,2.57838,2.57708,2.5756,0.251454,0.251255,0.251041,0.250787,0.250502,0.250194,0.249869,0.249514,0.249168,0.248826,0.24847,0.248215,0.248064,0.246707,0.2386,0.223341,0.200207,0.169872,0.135003,0.0967356,0.0587188,0.0285931,0.00718938,-0.000793334,0.00352849,0.00343536,0.00333179,0.0032376,0.0031022,0.00297834,0.00285265,0.0027276,0.00254246,0.0023055,0.00209515,0.00192543,0.0017873,0.00168778,0.00160343,0.00151207,0.00141905,0.00130836,0.00125252,0.00120906,0.00117069,0.00113638,0.00110848,0.00108575,0.00106401,0.00104588,0.0010303,0.00101768,0.0010066,0.000996622,0.000988377,0.000981031,0.000975365,0.000969836,0.000965748,0.000961948,0.000958636,0.000955716,0.000953449,0.000951283,0.000949565,0.000948027,0.000946717,0.000945572,0.000944641,0.000943833,0.000943094,0.000942126,0.000942002,0.000941534,0.000941135,0.000940815,0.000941037,0.000940305,0.000940041,0.00093987,0.000939216,0.00093867,0.000939597,0.000939441,0.000939336,0.000939262,0.000939814,0.000939182,0.000939062,0.000939026,0.000938264,0.000938923,0.000938984,0.000938962,0.000938944,0.000938928,0.000938914,0.000938902,0.000938893,0.000938915,0.000938839,0.000939004,0.000938764,0.000938764,0.00094573,0.000945152,0.000944214,0.000943493,0.000942824,0.000942248,0.000942209,0.000877268,0.00072058,0.000618366,0.000400875,0.000366037,0.000372324,0.000394869,0.000439741,0.000496012,0.000591709,0.000725451,0.000934869,0.00134899,0.0126832,0.0414823,0.0872857,0.133559,0.176836,0.210991,0.236222,0.247117,0.248044,0.248371,0.248773,0.249196,0.249703,0.250202,0.2507,0.251173,0.251614,0.25203,0.252387,0.252673,0.84544,1.42733,2.59585,2.59788,2.59959,2.60103
2.57838,2.57716,2.57587,2.57432,2.57235,0.838345,0.250901,0.250652,0.250383,0.250098,0.249779,0.249454,0.249108,0.248774,0.24847,0.248242,0.248074,0.24769,0.242347,0.230022,0.21076,0.186126,0.155045,0.121796,0.0862587,0.0525255,0.0243999,0.00644877,-0.000793334,0.00352849,0.00343536,0.00333179,0.0032419,0.0031139,0.00297834,0.00285265,0.0027276,0.00254956,0.0023055,0.00210164,0.00192959,0.00179179,0.00169048,0.0016066,0.00151207,0.00142205,0.00130999,0.0012542,0.00121044,0.00117192,0.00113638,0.00110941,0.00108575,0.00106401,0.0010465,0.00103135,0.00101817,0.00100684,0.000996998,0.000988659,0.0009815,0.000975365,0.000969836,0.000965748,0.000961948,0.000958636,0.000955809,0.000953449,0.000951355,0.000949565,0.000948078,0.000946717,0.000945649,0.000944673,0.000943833,0.000943116,0.000942126,0.000942002,0.000941534,0.000941161,0.000940826,0.000940928,0.000940305,0.000940048,0.00093987,0.000939216,0.000938546,0.000939597,0.000939441,0.000939336,0.000939265,0.000939814,0.000939174,0.000939062,0.000939026,0.000938264,0.000938923,0.000938984,0.000938962,0.000938944,0.000938928,0.000938914,0.000938903,0.000938893,0.000938915,0.000938839,0.000939004,0.000938764,0.000938764,0.00094573,0.000945152,0.000944273,0.000943493,0.000942824,0.000942248,0.000942209,0.000877268,0.00072058,0.000618366,0.000400875,0.000366037,0.000372324,0.000394869,0.000439741,0.000496012,0.000587135,0.000715716,0.000917316,0.00119148,0.0108409,0.0378388,0.0766528,0.121862,0.161631,0.197115,0.225526,0.242254,0.248175,0.248162,0.248467,0.248835,0.249261,0.249732,0.250202,0.250667,0.251126,0.25155,0.251933,0.252284,1.42341,2.58932,2.59207,2.5945,2.59667,2.59845
2.5762,2.57457,2.57287,2.57105,2.56898,2.56649,0.836309,0.250269,0.249997,0.249691,0.249379,0.249072,0.248764,0.24847,0.248242,0.248089,0.247949,0.24432,0.23433,0.219897,0.198273,0.174544,0.143332,0.109805,0.0771566,0.0466332,0.0215465,0.00603035,-0.000793334,0.00352849,0.00343536,0.00333379,0.0032419,0.0031139,0.00297834,0.00285676,0.00273248,0.00254956,0.00231543,0.00210164,0.00192959,0.00179179,0.00169048,0.0016066,0.0015153,0.00142505,0.00131161,0.0012542,0.00121044,0.00117192,0.00113638,0.00110941,0.00108575,0.00106484,0.0010465,0.00103135,0.00101817,0.00100684,0.000997356,0.000988659,0.0009815,0.000975574,0.000969836,0.000965748,0.000961948,0.000958745,0.000955903,0.000953449,0.000951355,0.000949623,0.000948078,0.000946756,0.000945649,0.000944673,0.000943833,0.000943139,0.000942126,0.000942033,0.00094155,0.000941161,0.000940826,0.000940819,0.000940302,0.000940048,0.000939875,0.000939338,0.000938546,0.000939711,0.000939448,0.000939336,0.000939265,0.000939814,0.000939174,0.000939064,0.000939026,0.000938264,0.000938923,0.000938986,0.000938963,0.000938944,0.000938928,0.000938914,0.000938903,0.000938893,0.000938909,0.000938839,0.000938885,0.000938764,0.000938764,0.00094573,0.000945186,0.000944273,0.000943493,0.000942824,0.000942266,0.000942209,0.000877268,0.000722529,0.000618366,0.000401208,0.000365739,0.000371776,0.000392366,0.000439741,0.000493633,0.000587135,0.000715716,0.000917316,0.00113691,0.00946716,0.0336231,0.0677196,0.108844,0.149658,0.184488,0.214359,0.235171,0.246622,0.248072,0.24824,0.248561,0.24893,0.249328,0.249776,0.250202,0.25065,0.251076,0.251468,0.84069,2.58154,2.58499,2.58807,2.59076,2.59328,2.59537
2.57359,2.57168,2.56976,2.56768,2.56527,2.56272,2.55993,0.834082,0.249615,0.249328,0.249038,0.248733,0.248485,0.248265,0.248107,0.248045,0.245903,0.2386,0.226274,0.208987,0.186126,0.160815,0.131471,0.0990978,0.0693409,0.0410681,0.018508,0.00567607,-0.000793334,0.00350355,0.00343338,0.00333379,0.0032462,0.0031139,0.00298679,0.00285676,0.00273248,0.00255665,0.00231543,0.00210813,0.00193584,0.00179629,0.00169048,0.00160977,0.0015153,0.00142505,0.00131161,0.00125588,0.00121044,0.00117317,0.00113869,0.00111033,0.00108575,0.00106484,0.0010465,0.00103187,0.00101817,0.00100709,0.000997356,0.000988659,0.000981734,0.000975574,0.000969894,0.000965748,0.000961948,0.000958745,0.000955903,0.00095353,0.000951427,0.000949623,0.000948078,0.000946756,0.000945649,0.000944673,0.000943833,0.000943139,0.00094267,0.000942033,0.00094155,0.000941161,0.000940826,0.000940819,0.000940289,0.000940054,0.000939875,0.000939338,0.000938546,0.000939711,0.000939448,0.000939341,0.000939267,0.000939715,0.000939174,0.000939064,0.000939026,0.000938468,0.000938923,0.000938986,0.000938963,0.000938944,0.000938928,0.000938914,0.000938903,0.000938893,0.000938909,0.00093879,0.000938871,0.000938764,0.000938764,0.00094573,0.000945186,0.000944273,0.000943493,0.000942847,0.000942266,0.000941399,0.000882828,0.000722529,0.000618366,0.000401208,0.000365739,0.000371776,0.000392366,0.000439741,0.000493633,0.00058256,0.00070598,0.000898599,0.00111145,0.00756172,0.0276518,0.0605228,0.0995998,0.135907,0.171885,0.202126,0.226449,0.241477,0.24811,0.248056,0.248334,0.248634,0.249,0.249379,0.249791,0.250218,0.250634,0.83782,2.57296,2.57688,2.58047,2.5838,2.58686,2.58954,2.59214
2.57047,2.5686,2.56649,2.56424,2.56172,2.55899,2.55612,1.40667,0.24928,0.249005,0.248733,0.248485,0.248278,0.248122,0.248047,0.246805,0.241334,0.231011,0.217106,0.198273,0.174544,0.149206,0.120594,0.0920686,0.061332,0.0369445,0.0163234,0.00534285,0.000156225,0.00350355,0.00343338,0.00333379,0.0032505,0.00312613,0.00298679,0.00285676,0.00273248,0.00255665,0.00232536,0.00210813,0.00193584,0.00179629,0.00169319,0.00160977,0.00151852,0.00142805,0.00131161,0.00125588,0.00121182,0.00117317,0.00113869,0.00111132,0.00108728,0.00106484,0.00104711,0.00103187,0.00101851,0.00100709,0.000997356,0.000988942,0.000981734,0.000975574,0.000969952,0.000965891,0.000962073,0.000958854,0.000955997,0.00095353,0.0009515,0.000949623,0.000948129,0.000946795,0.000945688,0.000944673,0.000943861,0.000943162,0.00094267,0.000942033,0.000941566,0.000941174,0.000940837,0.000940819,0.000940289,0.000940054,0.000939881,0.000939338,0.000938421,0.000939758,0.000939448,0.000939341,0.000939267,0.000939599,0.000939166,0.000939065,0.000939028,0.000938468,0.000938929,0.000938989,0.000938964,0.000938944,0.000938929,0.000938915,0.000938903,0.000938893,0.000938909,0.00093879,0.000938871,0.000938727,0.000938764,0.00094573,0.000945221,0.000944303,0.00094352,0.000942847,0.000942284,0.000941399,0.000882828,0.000722529,0.000622674,0.000401208,0.000365739,0.000371776,0.000392366,0.000439741,0.000491254,0.00058256,0.000700979,0.000892258,0.00109196,0.00640531,0.0219498,0.0529996,0.0888161,0.125699,0.159366,0.191895,0.215979,0.235171,0.245715,0.248124,0.248162,0.248404,0.24871,0.249058,0.249432,0.24982,0.835254,2.56423,2.56839,2.57235,2.57611,2.57965,2.58284,2.58577,2.58851
2.56743,2.56533,2.56305,2.56066,2.55799,2.5554,2.55253,2.5497,0.830968,0.248722,0.248492,0.24829,0.24814,0.248056,0.24752,0.24311,0.235198,0.222972,0.207183,0.187158,0.163146,0.137442,0.109805,0.0833607,0.0566256,0.0334934,0.0148412,0.00514982,0.000156225,0.00350355,0.00343338,0.00333785,0.0032505,0.00312613,0.00298679,0.00286496,0.0027407,0.00256373,0.00232536,0.00211461,0.00194216,0.00180528,0.00169319,0.00161282,0.00151852,0.00142805,0.00131357,0.00125756,0.00121321,0.00117317,0.00113984,0.00111132,0.00108728,0.00106567,0.00104711,0.00103239,0.00101885,0.00100709,0.000997674,0.000989224,0.000981734,0.000975574,0.000969952,0.000966034,0.000962199,0.000958854,0.000955997,0.00095353,0.0009515,0.000949683,0.00094818,0.00094684,0.000945688,0.000944738,0.000943889,0.000943162,0.000942945,0.000942033,0.000941566,0.000941174,0.000940849,0.000940709,0.000940289,0.000940061,0.000939881,0.00093946,0.0009385,0.000939758,0.000939456,0.000939343,0.000939269,0.000939599,0.000939166,0.000939065,0.000939028,0.000938593,0.000938936,0.000938989,0.000938964,0.000938945,0.000938929,0.000938915,0.000938903,0.000938893,0.000938904,0.000938766,0.000938866,0.000938727,0.000938764,0.00094573,0.000945221,0.000944303,0.000943547,0.000942869,0.000942284,0.000940751,0.000882828,0.000725865,0.000622674,0.000401541,0.000365728,0.000371776,0.000392366,0.000437715,0.000491254,0.000577986,0.000700979,0.000885851,0.00107639,0.00558241,0.0181224,0.0483298,0.0804294,0.115016,0.149658,0.179324,0.206355,0.22736,0.240667,0.247611,0.24805,0.248226,0.248486,0.248783,0.249107,0.832499,1.40786,2.55996,2.56397,2.56789,2.57175,2.57535,2.57857,2.58187,2.58483
2.56445,2.56198,2.55972,2.55732,2.55467,2.55197,2.54934,2.54653,2.544,1.40085,0.248304,0.248152,0.248064,0.247869,0.244935,0.238347,0.228014,0.214191,0.19678,0.176826,0.153302,0.128397,0.102062,0.0760342,0.0515298,0.0297804,0.0134386,0.0048802,0.000156225,0.00350355,0.00343278,0.00333785,0.0032548,0.00312613,0.00299137,0.00286496,0.0027407,0.00256373,0.00233481,0.00211461,0.00194216,0.00180528,0.00169589,0.00161282,0.00152175,0.00143105,0.00131357,0.00125756,0.00121321,0.00117442,0.00113984,0.00111231,0.00108804,0.00106628,0.00104711,0.00103239,0.00101885,0.00100733,0.000997674,0.000989224,0.000981976,0.000975783,0.000970005,0.000966034,0.000962199,0.000958963,0.000956091,0.000953612,0.0009515,0.000949743,0.00094818,0.00094684,0.000945688,0.000944738,0.000943889,0.000943186,0.000942945,0.000942064,0.000941582,0.000941174,0.000940849,0.0009406,0.000940273,0.000940061,0.000939887,0.000939581,0.0009385,0.000939758,0.000939456,0.000939343,0.000939269,0.000939599,0.000939158,0.000939066,0.000939028,0.000938593,0.000938936,0.000938989,0.000938964,0.000938945,0.000938929,0.000938915,0.000938903,0.000938893,0.000938898,0.000938766,0.000938866,0.00093869,0.000938764,0.00094573,0.000945221,0.000944303,0.000943547,0.000942869,0.000942303,0.000940751,0.000888388,0.000725865,0.000622674,0.000401541,0.000365728,0.000371502,0.000391114,0.000435777,0.000489141,0.000577986,0.000695883,0.000873038,0.00107129,0.00457299,0.016886,0.0435635,0.0729026,0.105768,0.13898,0.168243,0.195832,0.218102,0.234788,0.244793,0.248175,0.24807,0.248303,0.248553,0.830256,2.54836,2.55214,2.55603,2.55996,2.56388,2.56763,2.57133,2.57475,2.57788,2.58097
2.56146,2.55899,2.55645,2.55402,2.55151,2.54892,2.54635,2.54395,2.54163,2.53961,1.39824,0.248072,0.248022,0.245903,0.240467,0.23226,0.219897,0.205815,0.187677,0.166001,0.143332,0.119394,0.0950082,0.0693409,0.0466332,0.0274185,0.0121306,0.00472648,0.000631005,0.00350355,0.00343692,0.00333991,0.0032548,0.00312613,0.00299137,0.00286496,0.0027407,0.00257059,0.00233481,0.00212109,0.00194847,0.00180528,0.00169589,0.00161282,0.00152175,0.00143105,0.00131554,0.00125923,0.00121465,0.00117567,0.001141,0.00111231,0.00108804,0.00106628,0.00104772,0.00103239,0.00101918,0.00100757,0.000997992,0.000989224,0.000982218,0.000975992,0.000970005,0.000966177,0.00096233,0.000958963,0.000956091,0.000953694,0.000951572,0.000949743,0.000948232,0.000946884,0.000945727,0.000944738,0.000943917,0.000943186,0.000942945,0.000942083,0.000941582,0.000941187,0.00094086,0.0009406,0.000940273,0.000940061,0.000939887,0.000939581,0.000938606,0.000939805,0.000939456,0.000939346,0.000939269,0.000939483,0.000939158,0.000939067,0.00093903,0.000938593,0.000938936,0.000938991,0.000938964,0.000938945,0.000938929,0.000938915,0.000938904,0.000938894,0.000938898,0.000938766,0.000938861,0.00093869,0.000938764,0.00094573,0.000945256,0.000944334,0.000943547,0.000942891,0.000942303,0.000940272,0.000888388,0.000725865,0.000626982,0.000396677,0.000365728,0.000371502,0.000391114,0.000435777,0.000489141,0.000573412,0.000690788,0.000866631,0.00105599,0.00394579,0.0165355,0.0383196,0.0669845,0.098056,0.129703,0.159366,0.185882,0.209241,0.2278,0.240667,0.247117,0.248079,0.248156,0.828935,2.54238,2.54549,2.5489,2.55252,2.55627,2.56005,2.56369,2.56738,2.5708,2.57424,2.57722
2.55819,2.55593,2.5535,2.55094,2.5485,2.54618,2.5438,2.54167,2.53979,2.53817,2.53708,1.39722,0.246805,0.242541,0.235486,0.225183,0.212488,0.195809,0.178283,0.156784,0.135003,0.1116,0.0874371,0.0639622,0.042877,0.024771,0.0108804,0.00450866,0.00100679,0.00350355,0.00343692,0.00334198,0.00325904,0.00313225,0.00299596,0.00286904,0.00274401,0.00257059,0.00234425,0.00212109,0.00194847,0.00180528,0.00169806,0.00161586,0.00152498,0.00143414,0.00131554,0.00125923,0.00121465,0.00117567,0.001141,0.00111231,0.00108804,0.00106686,0.00104833,0.00103282,0.00101918,0.00100757,0.00099831,0.000989506,0.000982218,0.000975992,0.000970005,0.000966177,0.00096233,0.000959072,0.000956091,0.000953694,0.000951572,0.000949804,0.000948232,0.000946884,0.000945765,0.000944771,0.000943917,0.00094321,0.00094322,0.000942083,0.000941582,0.0009412,0.00094086,0.0009406,0.000940256,0.000940067,0.000939887,0.000939703,0.000938606,0.000939805,0.000939455,0.000939346,0.000939275,0.000939366,0.000939139,0.000939067,0.00093903,0.000938718,0.000938942,0.000938991,0.000938965,0.000938946,0.000938929,0.000938916,0.000938904,0.000938894,0.000938892,0.000938718,0.000938861,0.000938619,0.000938764,0.00094573,0.000945256,0.000944364,0.000943574,0.000942891,0.000942303,0.000940272,0.000893948,0.0007306,0.000626982,0.000396677,0.000365716,0.000371502,0.000389944,0.000435777,0.000489141,0.000573412,0.000685693,0.00086033,0.0010509,0.00334733,0.0150484,0.0358398,0.0605228,0.0903525,0.120444,0.149658,0.176175,0.199646,0.219664,0.234788,0.244172,1.39699,1.39773,2.53843,2.54043,2.54305,2.5461,2.54938,2.5529,2.55651,2.56005,2.5635,2.56704,2.57046,2.57338
2.55513,2.55279,2.55051,2.5482,2.54596,2.5438,2.54167,2.53979,2.53828,2.53719,2.5367,2.52873,2.49257,0.797824,0.229356,0.21791,0.20443,0.187677,0.168751,0.148618,0.126599,0.104439,0.0810761,0.0587188,0.0392074,0.0229545,0.00994375,0.00438286,0.00100679,0.00350355,0.00344106,0.00334198,0.00325904,0.00313837,0.00300054,0.00287312,0.00274401,0.00257745,0.00234425,0.00212756,0.00195479,0.00180977,0.00169806,0.00161891,0.00152498,0.00143414,0.00131751,0.00126091,0.00121609,0.00117692,0.001141,0.00111331,0.0010888,0.00106686,0.00104833,0.00103282,0.00101951,0.00100793,0.00099831,0.000989506,0.00098246,0.0009762,0.000970057,0.000966177,0.000962463,0.000959072,0.000956188,0.000953776,0.000951642,0.000949804,0.000948232,0.000946929,0.000945765,0.000944771,0.000943945,0.00094321,0.00094322,0.0009421,0.000941598,0.0009412,0.000940871,0.000940589,0.000940256,0.000940076,0.000939892,0.000939703,0.000938606,0.000939852,0.000939455,0.000939346,0.000939275,0.000939366,0.000939139,0.000939068,0.000939031,0.000938718,0.000938942,0.000938994,0.000938965,0.000938946,0.00093893,0.000938916,0.000938904,0.000938894,0.000938892,0.000938718,0.000938857,0.000938619,0.000938764,0.00094573,0.000945291,0.000944364,0.000943574,0.000942912,0.000942321,0.000940272,0.000893948,0.0007306,0.000626982,0.000396677,0.000365716,0.000371228,0.000389944,0.00043401,0.00048755,0.000569461,0.000680598,0.000854142,0.00104072,0.00281292,0.0130705,0.0324911,0.0556243,0.0834687,0.112592,0.140511,0.166754,0.191223,0.211574,0.766228,1.34334,2.51954,2.53728,2.53761,2.53896,2.54108,2.5437,2.54673,2.54992,2.55327,2.55651,2.56005,2.5635,2.5667,2.56986
