0.00438253,0.00412679,0.0059614,0.00263361,0.00307207,0.00453431,0.0348156,0.00448324,0.00588495,0.00381681,0.00456662,0.00256222,0.00365723,0.0103925,0.00287767,0.00442076,0.0217061,0.00304385,0.00391071,0.0027916,0.0034928,0.00474452,0.00233917,0.00214574,0.0304784,0.00229482,0.00892007,0.00306269,0.00718134,0.00279685,0.00831012,0.00198749,0.00234593,0.00197266,0.00251202,0.00428558,0.00254272,0.00299603,0.0122701,0.0190196,0.00211965,0.0105584,0.0283419,0.00466695,0.00492668,0.00227177,0.00242935,0.0024249,0.0098423,0.00512271,0.0100565,0.0050878,0.019715,0.00475067,0.00723464,0.00380645,0.00391936,0.0120632,0.00396713,0.0129409,0.00282062,0.00780861,0.0227265,0.00552346,0.00198375,0.00223139,0.0325749,0.00349903,0.00378789,0.00257099,0.00328262,0.00242184,0.00718138,0.0105211,0.00231604,0.0209887,0.0065427,0.00727278,0.0020026,0.00780825,0.00260591,0.0100632,0.0019583,0.0384187,0.010108,0.0205662,0.00398169,0.00223536,0.00294143,0.0024567,0.00520096,0.00405436,0.00347262,0.0077239,0.00255514,0.00181653,0.0185024,0.0189754,0.00465651,0.0194033,0.00318274,0.00416433,0.00539791,0.113537,0.0019404,0.00539795,0.00289633,0.00351738,0.00263968,0.00264073,0.00227687,0.00386587,0.0021503,0.0206092,0.0038386,0.0156011,0.00314728,0.00330848,0.00346477,0.0105309,0.00735427,0.00261987,0.00206301,0.00307482,0.0138595,0.00943204,0.00245552,0.00317908,0.0101949,0.00716318,0.00581016,0.00369623,0.00206735,0.00219627,0.0025769,0.00141748,0.000954202,0.000926642,0,2.06946e-13,0.000457747,0.000575685,0.000859005,0.00287005,0.0254178,0.0036194,0.00237215,0.0205855,0.00350084,0.00571766,0.00324818,0.00262714,0.00303797,0.222634,0.00733945,0.0415297,0.0133601,0.00731444,0.00178113,0.00337856,0.00308692,0.0025293,0.152557,0.0156142,0.00302477,0.011084,0.00505963,0.00468252,0.0034937,0.0145952,0.01561,0.00629297,0.0919893,0.032669,0.0305153,0.00810096,0.00334714,0.0290315,0.0146536,0.00552771,0.00324135,0.040149,0.00394561,0.00462298,0.00307505,0.00281125,0.00368535,0.00523689,0.0345317,0.00596939,0.0262925,0.00210106,0.00290032,0.0140542,0.00269571,0.00884076,0.00969739,0.00661542,0.00317994,0.00274601,0.0046118,0.0175867,0.00568316,0.0115081,0.0121614,0.021017,0.00343435,0.00717031,0.00220729,0.00301152,0.00975059,0.00387216,0.0152821,0.0104328,0.00345266,0.00706786,0.00514569,0.00282802,0.0114029,0.00846204,0.00212408,0.00463316,0.0128185,0.0139016,0.00377311,0.00669957,0.00423511,0.00351487,0.00190911,0.00222122,0.00412686,0.0132521,0.00443863,0.741035,0.00344166,0.00254473,0.0113172,0.00332046,0.00321555,0.0038698,0.00817111,0.0103194,0.0142264,0.018438,0.0230798,0.0785473,0.0344787,0.0438425,0.0490255,0.0628113,0.0690379,0.0786921,0.084223,0.0909209,0.102096,0.1094,0.116602,0.124352,0.129711,0.136049,0.14149,0.146334,0.150314,0.152397,0.156724,0.159251,0.160098,0.161623,0.160381,0.161682,0.161417,0.161605,0.161251,0.161632,0.161518,0.161288,0.160954,0.161244,0.16121,0.161948,0.160541,0.162236,0.162027,0.162122,0.16233,0.162332,0.162548,0.162029,0.162895,0.162546,0.163019,0.162893,0.163028,0.162802,0.163708,0.165983,0.163367,0.163943,0.163078,0.163662,0.163701,0.163817,0.16359,0.163709,0.163563,0.163147,0.164386
0.0182787,0.00186341,0.00471423,0.0189573,0.00229013,0.00392579,0.00204117,0.00371976,0.00344133,0.00478771,0.0155171,0.00410803,0.00206321,0.00370697,0.00235429,0.00240696,0.00780806,0.0036498,0.00391071,0.00215804,0.00573959,0.0030151,0.00718194,0.050521,0.0049162,0.00537205,0.00295761,0.00275467,0.00498699,0.0110478,0.00192659,0.00253298,0.00261173,0.00241169,0.0174277,0.00207065,0.00208224,0.019715,0.00223135,0.00167998,0.0029754,0.00240019,0.00476852,0.00505979,0.0252731,0.00227177,0.00472701,0.00621447,0.00252062,0.00240177,0.00405436,0.0127286,0.0117059,0.00807776,0.00270274,0.00440031,0.00350398,0.0453371,0.00337937,0.0208537,0.0054443,0.0116453,0.00398396,0.0174153,0.0079667,0.0100827,0.00548662,0.00750848,0.0103183,0.00463884,0.00271081,0.00305438,0.0582642,0.00309594,0.00240892,0.00359841,0.00816216,0.00210867,0.0129311,0.00623588,0.00203741,0.00287983,0.00362421,0.00564694,0.0027356,0.00436977,0.0085874,0.00200893,0.0048688,0.0027199,0.00375965,0.425172,0.00369682,0.00287983,0.00226823,0.0055909,0.00621435,0.00641345,0.00216642,0.00298074,0.00984246,0.0054986,0.00194413,0.00402072,0.00475051,0.00278324,0.0205821,0.00227177,0.0272237,0.00767718,0.00590417,0.0181305,0.00471409,0.0110384,0.00350388,0.00825462,0.00586651,0.0206643,0.00286882,0.00571903,0.0254595,0.00360921,0.00214857,0.00191576,0.00441604,0.0412762,0.00409134,0.00441096,0.00539797,0.00456669,0.00339176,0.0127014,0.00473837,0.00219627,0.00106084,0.000870929,0.000627443,0.000785199,0.000476765,2.06946e-13,0.000585814,0.00057078,0.000993314,0.00148543,0.00202746,0.223968,0.00229175,0.00186431,0.00193339,0.00339771,0.00744426,0.0266097,0.0239263,0.00206248,0.00512454,0.00246024,0.00725644,0.0030746,0.0034907,0.00407279,0.00449705,0.0508843,0.00992717,0.0188406,0.0172403,0.00437657,0.00306259,0.003905,0.00249305,0.0032073,0.00281904,0.00257241,0.0207244,0.00462062,0.0040121,0.00213058,0.0661438,0.00593695,0.00315667,0.0124956,0.00557334,0.00335675,0.0118936,0.00341872,0.00419441,0.0124933,0.00813776,0.0146058,0.00466385,0.00322086,0.0103107,0.0062591,0.0141321,0.0070191,0.00585272,0.00494001,0.0502226,0.00366867,0.00660981,0.0119781,0.018589,0.0069736,0.00427564,0.00503505,0.00620323,0.115864,0.01626,0.00609585,0.00166024,0.00260567,0.00393169,0.00736926,0.0341617,0.00570558,0.00472749,0.00588487,0.00755592,0.0152443,0.0115673,0.00281586,0.00431316,0.00303203,0.0152867,0.022243,0.0023246,0.00216571,0.00303129,0.00232015,0.00383433,0.00511308,0.0309259,0.00420567,0.00159847,0.00402931,0.0822882,0.00295561,0.00946404,0.00344838,0.00432204,0.00549263,0.00757479,0.00847708,0.0136818,0.0327019,0.0236695,0.0299512,0.0346609,0.0639663,0.0497247,0.0576829,0.0658991,0.0739788,0.083596,0.101257,0.0984974,0.107879,0.175726,0.125535,0.127496,0.131878,0.139286,0.142999,0.148063,0.152676,0.156172,0.156268,0.159385,0.160473,0.16109,0.161109,0.161218,0.161205,0.16163,0.161196,0.160067,0.196866,0.161588,0.161612,0.161417,0.162428,0.161983,0.162378,0.161713,0.162731,0.162155,0.162971,0.223678,0.162651,0.16352,0.162816,0.162886,0.16314,0.162341,0.162819,0.163262,0.162144,0.163477,0.163218,0.163384,0.163864,0.163343,0.163516,0.164132,0.163928,0.163852,0.162811,0.164277
0.00276691,0.00287149,0.0017463,0.0189573,0.0031215,0.00296946,0.116192,0.00300309,0.00394928,0.0155171,0.0239287,0.00642475,0.00532884,0.00635051,0.00694374,0.00241293,0.00888017,0.00523047,0.00234447,0.150722,0.00475654,0.00302759,0.00233917,0.00367113,0.00247764,0.00243083,0.00301915,0.0021914,0.00701553,0.00869687,0.00337283,0.114401,0.00216374,0.00293119,0.00278319,0.00674638,0.00923415,0.00241512,0.00308042,0.00609431,0.0141527,0.00246175,0.00253419,0.0228633,0.00319676,0.00291446,0.00295657,0.00676173,0.00178342,0.00743958,0.075302,0.0511481,0.0108414,0.0323343,0.0241667,0.00206275,0.00246184,0.00539536,0.00251607,0.00206274,0.00288725,0.00675259,0.00242914,0.00472572,0.0508375,0.00201299,0.0325482,0.00498535,0.00379159,0.090295,0.00205008,0.00647051,0.00257306,0.00500716,0.0113831,0.00217806,0.00656114,0.0026505,0.00240097,0.00228435,0.00500423,0.00223523,0.00581042,0.0181191,0.00529246,0.00205871,0.0268966,0.00266249,0.00223901,0.00299812,0.00219635,0.00236096,0.00795111,0.00784438,0.0108801,0.0148843,0.00521134,0.00542663,0.00503205,0.00393239,0.0030722,0.00416433,0.00920596,0.0022712,0.00427513,0.00457976,0.00273216,0.00227177,0.0303345,0.00366792,0.00977876,0.010309,0.00232958,0.00750822,0.00248685,0.00329567,0.0119119,0.0103373,0.00306269,0.0240561,0.0753124,0.00463044,0.0252721,0.00476252,0.00509495,0.00475036,0.00219143,0.00928723,0.0166361,0.0025293,0.00410878,0.0199506,0.00277801,0.00470704,0.0012921,0.000793134,0.000536607,0.000544485,0.000480231,2.06946e-13,0.000506938,0.000819645,0.000837931,0.00287005,0.00282289,0.017893,0.00229175,0.00258514,0.0385085,0.0216243,0.00403456,0.00187,0.0129218,0.0023391,0.0058289,0.00505953,0.0072913,0.00252054,0.00236138,0.00540862,0.00293289,0.00710826,0.00392757,0.00345745,0.00311617,0.00223312,0.00213695,0.00232156,0.0034937,0.00255084,0.00547741,0.00398073,0.00888652,0.00362927,0.00655174,0.0161853,0.00277625,0.00475218,0.00315667,0.0114441,0.00172743,0.00421595,0.00760786,0.00979288,0.0124772,0.00357143,0.00813776,0.00294661,0.00405327,0.0118458,0.00355097,0.00515942,0.00696856,0.00434272,0.00764071,0.00350057,0.011474,0.00171582,0.013492,0.00302841,0.00687601,0.00255776,0.00381232,0.0614256,0.00256809,0.00465648,0.00550675,0.00252301,0.0114574,0.00812428,0.185094,0.0124522,0.00943804,0.00552762,0.0102952,0.00592953,0.00281264,0.0152443,0.00161626,0.00212368,0.00327186,0.00191284,0.0033049,0.00952947,0.0146875,0.00563638,0.0060004,0.00363431,0.029735,0.00226438,0.00221374,0.00251282,0.00163751,0.00841486,0.0016471,0.00744942,0.00250446,0.00339207,0.00244925,0.00384642,0.0057314,0.00878085,0.0200574,0.0194631,0.0231694,0.0266825,0.0348371,0.0499421,0.0458844,0.0555752,0.0710988,0.0739986,0.0960292,0.088994,0.0847006,0.10396,0.109692,0.117765,0.123895,0.130695,0.136441,0.140944,0.146236,0.150594,0.153145,0.155876,0.158183,0.15979,0.160626,0.162159,0.161112,0.161464,0.161446,0.161407,0.16115,0.160752,0.161804,0.161594,0.161266,0.161644,0.1619,0.161983,0.162125,0.162225,0.162568,0.16285,0.162331,0.162405,0.162868,0.162354,0.162725,0.162546,0.163012,0.162659,0.162968,0.163365,0.163131,0.16311,0.163326,0.163679,0.163371,0.163424,0.163795,0.163645,0.163952,0.164091,0.163862
0.00322315,0.00205014,0.00370821,0.0252462,0.00942272,0.00206254,0.028311,0.00266091,0.00628965,0.00300736,0.114114,0.0182724,0.00233252,0.00358558,0.00277017,0.046034,0.00193311,0.00635051,0.0238091,0.149737,0.00223522,0.0188639,0.00274317,0.00454053,0.00514839,0.00229482,0.00226291,0.00183756,0.00500413,0.00295184,0.00245437,0.0131516,0.00261173,0.0379295,0.223448,0.00797561,0.00257246,0.00190892,0.00277999,0.00609431,0.0141527,0.00405382,0.00646817,0.0215438,0.00255865,0.0168577,0.00416342,0.0103373,0.00419714,0.0380823,0.00405436,0.00276564,0.00252475,0.00549073,0.0116186,0.00440031,0.00287991,0.00581079,0.00838661,0.0566842,0.00387769,0.00646234,0.0287752,0.00361752,0.00264073,0.0129607,0.00842292,0.00379637,0.00706934,0.00257099,0.00862424,0.00200417,0.00195188,0.00425218,0.00669394,0.0201034,0.011038,0.0126922,0.0030849,0.0052306,0.00910223,0.0167859,0.00506866,0.00199122,0.0188546,0.00445672,0.00476928,0.00831076,0.00228435,0.0108801,0.0174319,0.00534781,0.00283533,0.00277171,0.00197507,0.00560969,0.011913,0.00840639,0.00376244,0.0156779,0.00501413,0.00405436,0.00414357,0.00266419,0.00197507,0.0266995,0.00289633,0.0019403,0.00420032,0.00239455,0.00277033,0.00418101,0.00322863,0.00407476,0.00416454,0.00396451,0.00198919,0.00668505,0.00770524,0.00307473,0.00481295,0.0106616,0.00313527,0.0284426,0.00351712,0.00267826,0.00184995,0.00317908,0.00272677,0.00531673,0.00410878,0.00615387,0.00962554,0.00130988,0.00179314,0.000793134,0.000586589,0.00075382,0.00055424,0.000503568,0.000470714,0.000602063,0.000992238,0.00203232,0.00431819,0.00340246,0.00357573,0.0146686,0.00344134,0.0022151,0.00469029,0.112635,0.0043927,0.0102709,0.00396829,0.00770556,0.00225696,0.00240891,0.00726554,0.00531691,0.00384565,0.00225563,0.0452154,0.00432941,0.00470141,0.00349084,0.0050319,0.00611613,0.00983298,0.00889236,0.00410953,0.0028078,0.00239569,0.00453669,0.00403925,0.00351878,0.00770253,0.00870221,0.0107916,0.0197639,0.025267,0.0253269,0.00322562,0.00473622,0.00231023,0.106913,0.00477956,0.00400666,0.00737974,0.00163081,0.00762603,0.00728657,0.00843675,0.0146993,0.00269571,0.0118314,0.00370423,0.00918964,0.00305776,0.00597475,0.00750851,0.00980374,0.0271263,0.0614256,0.0206068,0.00944577,0.00245988,0.00392678,0.00686592,0.00704509,0.00516128,0.00785735,0.00472746,0.00388243,0.00348885,0.019698,0.0129784,0.0537496,0.0143209,0.00281586,0.00224772,0.00253226,0.0152867,0.00420838,0.0712224,0.00200088,0.00205499,0.00175456,0.00309769,0.0022763,0.0459111,0.961045,0.00443863,0.00204108,0.00382391,0.00587921,0.0067901,0.0180475,0.00206441,0.00555307,0.0106132,0.00855754,0.0119971,0.0145392,0.0206961,0.0278089,0.0315539,0.0383679,0.0481725,0.055642,0.0636871,0.0725115,0.0812819,0.0862451,0.0934883,0.104448,0.106859,0.114613,0.121522,0.12745,0.133604,0.132819,0.147811,0.144753,0.147867,0.154258,0.157117,0.157995,0.160531,0.161305,0.161075,0.160686,0.161219,0.161052,0.160671,0.162818,0.160964,0.161174,0.161237,0.161609,0.161817,0.16191,0.161824,0.19962,0.161672,0.173655,0.162203,0.162158,0.162339,0.161911,0.16234,0.162864,0.162425,0.162879,0.162891,0.162832,0.162281,0.163368,0.163408,0.163475,0.163349,0.167349,0.164763,0.163568,0.163707,0.163302,0.164167
0.00862424,0.0152522,0.0165027,0.00383695,0.00564426,0.00296946,0.00599246,0.0022896,0.00738041,0.00264779,0.00384319,0.00706961,0.0137102,0.00256509,0.0251468,0.00229487,0.00398182,0.150149,0.00407298,0.00181181,0.00223522,0.0188639,0.00301252,0.00775165,0.0032762,0.00537205,0.00461644,0.0058106,0.00394444,0.0206375,0.00832695,0.00244926,0.00232156,0.00243695,0.0241048,0.00544928,0.00275092,0.00326183,0.00447973,0.00605166,0.00697767,0.00373607,0.0162481,0.0129929,0.00252746,0.00521158,0.0171475,0.00236074,0.00317241,0.0380823,0.0288958,0.0030479,0.0134451,0.00410869,0.00582927,0.00440031,0.00202613,0.00357153,0.0182833,0.00233909,0.00400301,0.00381417,0.00665632,0.00301239,0.00291449,0.00206277,0.00842292,0.0645826,0.00292286,0.090295,0.00894666,0.00194391,0.0582642,0.00291406,0.00189952,0.222402,0.00472644,0.00523055,0.0909324,0.0137394,0.00581,0.0167859,0.00281413,0.00336084,0.0085874,0.00325987,0.00372308,0.00657065,0.0045464,0.00178756,0.0144413,0.00354139,0.00223027,0.00287983,0.00797973,0.0055909,0.0252673,0.0161716,0.0175899,0.0156779,0.0201034,0.00337294,0.227712,0.00906642,0.00247443,0.00539795,0.00277818,0.00227177,0.00794194,0.00630089,0.00509568,0.00270473,0.003389,0.00271549,0.00629488,0.00277171,0.00205066,0.00479996,0.0138565,0.0240561,0.0073144,0.00373618,0.00308049,0.00225955,0.00559071,0.00192319,0.00416433,0.0502242,0.00407258,0.00531673,0.00245155,0.00382261,0.0301919,0.456432,0.00115062,0.000793141,0.00063301,0.000598469,0.000495016,2.06946e-13,0.000470714,0.000526866,0.000881754,0.00203232,0.00431819,0.017893,0.00261887,0.00344673,0.0122233,0.0131808,0.0115832,0.00241886,0.00228968,0.00239508,0.00399796,0.00343948,0.00325048,0.00300508,0.023072,0.0103705,0.0100448,0.00430004,0.00321794,0.00432941,0.00641373,0.00360496,0.00306259,0.0110291,0.00272422,0.00347007,0.00401785,0.00257241,0.00239569,0.00405337,0.00648129,0.00259254,0.0661438,0.0160502,0.00292327,0.00219672,0.0171517,0.00839241,0.00322562,0.0114578,0.004169,0.134552,0.010543,0.00200005,0.0265359,0.00936577,0.00288707,0.0062591,0.00284337,0.00892731,0.00764071,0.0034445,0.00640899,0.0182866,0.00305776,0.00361937,0.0044978,0.0110109,0.00521682,0.00503505,0.00292087,0.0031564,0.00376449,0.00253684,0.0104435,0.0714737,0.00975059,0.00330946,0.00459139,0.00494384,0.00472749,0.002867,0.00420395,0.00419207,0.00566574,0.00846204,0.00327186,0.00201586,0.0152867,0.00179178,0.0712224,0.00478561,0.00253195,0.00351487,0.00383433,0.0028326,0.00655831,0.00235035,0.0032425,0.00623679,0.00310821,0.00150971,0.0222229,0.14107,0.0018269,0.0146734,0.00655564,0.00694692,0.0120844,0.0241951,0.0202741,0.0251849,0.0307423,0.0636441,0.0491243,0.0549005,0.0606422,0.0689791,0.0783702,0.0904412,0.0916619,0.0964648,0.105546,0.107783,0.119062,0.125097,0.132012,0.136154,0.14193,0.147119,0.200644,0.15305,0.15568,0.158046,0.159793,0.168051,0.162159,0.160944,0.161179,0.160993,0.161316,0.161467,0.161567,0.161087,0.160584,0.161706,0.162147,0.161766,0.161831,0.161885,0.166677,0.162234,0.16189,0.161684,0.162234,0.162487,0.162073,0.162017,0.162895,0.162903,0.160368,0.164833,0.163136,0.163028,0.163038,0.163522,0.163074,0.163331,0.163611,0.169441,0.164532,0.1636,0.163738
0.149721,0.00205014,0.00258433,0.00466416,0.00601947,0.00770445,0.0179812,0.00968276,0.0233031,0.00432335,0.01987,0.0146302,0.0186192,0.00635051,0.00820995,0.00605721,0.00398182,0.00665639,0.00407298,0.00181181,0.00308042,0.00403735,0.00233917,0.00775165,0.0071715,0.0034856,0.00495045,0.00750822,0.00619555,0.0023022,0.00283703,0.0188798,0.00348284,0.00221555,0.00306269,0.00197257,0.00446202,0.0129413,0.00855908,0.00870572,0.0141527,0.00457977,0.0283419,0.0647066,0.0047444,0.0116016,0.0105504,0.00305825,0.00560978,0.00512271,0.00505937,0.00838661,0.00711739,0.0567385,0.00360251,0.00380645,0.00281651,0.00282896,0.0051113,0.0125877,0.00410866,0.0038374,0.00196626,0.0196125,0.0902179,0.00271372,0.00345826,0.00226601,0.00342716,0.00624618,0.00194049,0.00474426,0.00210308,0.00379646,0.00341335,0.0324678,0.03035,0.00472573,0.00507817,0.00237214,0.00581,0.00245437,0.00194063,0.00241747,0.00870596,0.00393429,0.0018835,0.00831076,0.00228435,0.00248734,0.00788596,0.00427075,0.0025247,0.00209038,0.0105306,0.0033115,0.0116789,0.0902962,0.0175899,0.00653353,0.00722774,0.00321189,0.00920596,0.0411617,0.0113167,0.0129401,0.0205821,0.00229794,0.00309594,0.0462134,0.002247,0.00257022,0.0568427,0.00220579,0.00215058,0.011632,0.00399915,0.00259863,0.00409109,0.00262648,0.00271542,0.032426,0.00367113,0.00341597,0.0138595,0.0037264,0.00543549,0.0284003,0.00573978,0.00617231,0.00860541,0.0036967,0.00475055,0.00808852,0.0012921,0.000872657,0.00104774,0.00053265,0.00050857,0.000457039,0.000540359,0.000819645,0.000868553,0.00178249,0.00773865,0.00554531,0.223973,0.00390895,0.00313106,0.00245323,0.00209274,0.0151497,0.00698754,0.00368578,0.00217686,0.00235547,0.0051146,0.00218646,0.0034907,0.0150801,0.006233,0.00315767,0.0047691,0.00869663,0.00720947,0.00396715,0.00451521,0.00611613,0.00410869,0.00273551,0.00295893,0.00261329,0.00963682,0.00246918,0.011292,0.00446862,0.00893052,0.0183685,0.0263059,0.00250056,0.0144353,0.0977512,0.00246625,0.004174,0.00304499,0.00330046,0.00334039,0.0177835,0.00400903,0.00443398,0.00341892,0.0073148,0.00216578,0.00392201,0.00585272,0.00377644,0.111373,0.0064542,0.00452048,0.0119781,0.00428383,0.00386906,0.00569091,0.00433268,0.00854465,0.00478688,0.00926909,0.0138135,0.00680723,0.0045542,0.00253616,0.00314823,0.00562949,0.0179427,0.00232987,0.00383895,0.0445587,0.00637718,0.00201519,0.0110988,0.011834,0.00330075,0.00555813,0.00363549,0.0023246,0.00195092,0.00312286,0.00562612,0.00383433,0.00464497,0.00415832,0.00336842,0.00376967,0.00259865,0.0103711,0.0616359,0.00386676,0.00684829,0.00557988,0.00556001,0.00477809,0.00878869,0.0127486,0.0164684,0.0177061,0.225861,0.0311328,0.035935,0.048363,0.0510159,0.0592205,0.0745911,0.0751474,0.0829873,0.0886739,0.096635,0.102646,0.110132,0.116671,0.122841,0.128917,0.135474,0.138176,0.144221,0.147645,0.150865,0.155144,0.157859,0.159009,0.159948,0.161292,0.161624,0.161416,0.161208,0.160983,0.161225,0.161218,0.161548,0.161585,0.208674,0.161511,0.164293,0.162623,0.16162,0.161206,0.161026,0.161777,0.166374,0.162078,0.161494,0.162312,0.162037,0.162615,0.162476,0.162501,0.16324,0.162899,0.162717,0.163202,0.163058,0.162313,0.165209,0.163351,0.163078,0.163794,0.16343,0.163898
0.00838661,0.0410955,0.0029739,0.00541671,0.0135887,0.0110965,0.00192986,0.00707266,0.010569,0.00171884,0.00775984,0.00861845,0.0113169,0.00675285,0.00631287,0.00867987,0.0215551,0.150149,0.00234447,0.00886547,0.225503,0.0141678,0.0034726,0.00775165,0.0238124,0.00398052,0.00302477,0.00398057,0.00393543,0.00279979,0.223183,0.0100635,0.00390895,0.00801716,0.0119221,0.00797561,0.0206849,0.00923332,0.00235492,0.0019223,0.00204588,0.00322064,0.0377172,0.00347237,0.00185628,0.00478771,0.00269754,0.00676173,0.00427937,0.00887987,0.00279965,0.00225892,0.0134451,0.0206504,0.222719,0.00384565,0.00246184,0.0127256,0.0127286,0.064616,0.224799,0.00210706,0.0903646,0.00499644,0.00393566,0.00369961,0.00177224,0.00992279,0.0174068,0.090295,0.00309202,0.00372651,0.00178111,0.00296946,0.0284169,0.222402,0.00309585,0.00680579,0.00276446,0.00211965,0.00719126,0.0100632,0.00412679,0.026784,0.149781,0.00393429,0.00521156,0.0017549,0.00503205,0.00223529,0.00403446,0.0151099,0.00514281,0.0381047,0.0065605,0.00382991,0.00377553,0.00247097,0.00399996,0.00256518,0.00294233,0.00337294,0.00665684,0.00489794,0.00427513,0.00305821,0.00733073,0.0171179,0.00328262,0.0456287,0.00721881,0.00220552,0.0754481,0.00453039,0.00254279,0.0301846,0.00410902,0.00215474,0.00579216,0.00476866,0.00946028,0.00437779,0.0017902,0.0174218,0.0239297,0.00268245,0.0152683,0.00200497,0.00758852,0.00367508,0.0039291,0.0046587,0.00244923,0.0105062,0.0017022,0.000745473,0.000954202,0.000507417,0,2.06946e-13,0.000500329,0.000555581,0.00161395,0.00162874,0.00242806,0.00340246,0.00396198,0.00224743,0.0240386,0.00420277,0.016489,0.00523812,0.0122709,0.00299585,0.00435112,0.0044233,0.00219114,0.00335496,0.00315767,0.00211972,0.0147337,0.00710826,0.00321794,0.00793276,0.0765217,0.00216746,0.00931544,0.00287915,0.00645878,0.00436723,0.00267001,0.00423869,0.0111475,0.0052587,0.149012,0.0163664,0.00893052,0.00583147,0.0118275,0.0124956,0.00390865,0.00839241,0.00213675,0.00271157,0.159337,0.00376417,0.00325977,0.0198824,0.00265056,0.0193334,0.0059439,0.0073148,0.00722334,0.0111739,0.00585272,0.00251914,0.111373,0.0064542,0.013492,0.022561,0.895111,0.0069736,0.00702316,0.0115081,0.00435041,0.182434,0.0238479,0.00237003,0.00686592,0.00333391,0.00516128,0.00736926,0.00371453,0.00247461,0.00472749,0.0036776,0.0120953,0.00197313,0.0532544,0.00394517,0.00335124,0.00253226,0.0209015,0.00952947,0.00753995,0.00620329,0.0060004,0.00279571,0.0205008,0.00281973,0.00578553,0.00611598,0.0589011,0.00627136,0.00265047,0.0368071,0.0056438,0.00115835,0.00351153,0.00537241,0.0280784,0.0168402,0.012462,0.0171375,0.0214064,0.0200121,0.0287375,0.0340589,0.0639663,0.047827,0.0580961,0.0636651,0.0636886,0.0798078,0.0853661,0.093747,0.102062,0.108325,0.114472,0.121018,0.125336,0.13289,0.138029,0.141968,0.143617,0.149756,0.153045,0.153543,0.156305,0.15947,0.159426,0.161114,0.160895,0.159416,0.161088,0.160885,0.161457,0.161389,0.16064,0.161379,0.161417,0.162204,0.161104,0.161517,0.161854,0.162014,0.162177,0.161882,0.16217,0.16187,0.162223,0.162389,0.162628,0.162465,0.166691,0.162696,0.164168,0.163988,0.162839,0.163176,0.163415,0.162947,0.16353,0.16373,0.163139,0.163582,0.163659
0.1508,0.00968276,0.0107774,0.0349408,0.00196627,0.0155313,0.00259199,0.00333232,0.00233816,0.00300736,0.00871445,0.222748,0.00662713,0.00474426,0.00527964,0.00293999,0.00373313,0.00258431,0.00526259,0.00287149,0.0113071,0.0024452,0.00368915,0.00271231,0.00197906,0.00346258,0.00387363,0.0177661,0.00367496,0.00185317,0.0162324,0.0024117,0.00273906,0.00381693,0.00448668,0.00370697,0.0752485,0.0034726,0.00324181,0.00319344,0.00317509,0.00197995,0.0104208,0.00706953,0.00419825,0.00396295,0.00369351,0.00547687,0.0144555,0.00562827,0.0100632,0.0908937,0.019715,0.0025293,0.0457338,0.00272754,0.00798018,0.0197037,0.0035951,0.00724712,0.00581042,0.00280547,0.0085498,0.00298838,0.0103967,0.112599,0.0119225,0.00420269,0.00292286,0.00469022,0.00544858,0.014595,0.00552027,0.0301584,0.00381681,0.00287052,0.0161651,0.00802218,0.00575491,0.0647796,0.00356305,0.00388925,0.00226681,0.00526774,0.0188546,0.00445672,0.0411075,0.00227663,0.00378788,0.00340332,0.0028549,0.00218649,0.0024807,0.00544918,0.424308,0.0024388,0.0168493,0.436613,0.0175899,0.00566916,0.00294233,0.00276691,0.00362358,0.00254949,0.0054491,0.0239064,0.00733073,0.00375987,0.0285412,0.00767718,0.00329835,0.010309,0.00429814,0.00299594,0.0111206,0.00812529,0.0079115,0.00398045,0.00188865,0.0565523,0.003287,0.00637621,0.00888347,0.00202102,0.00522635,0.00314881,0.0119365,0.00659851,0.0120268,0.00730425,0.00942832,0.0025651,0.0130582,0.456432,0.0017022,0.000924485,0.000602513,0.000785199,0.000486084,0.000457917,0.000756961,0.000774669,0.000724911,0.00134678,0.00289572,0.00340246,0.00261887,0.00224743,0.0122233,0.00286111,1.54355,0.0122394,0.0198658,0.00239508,0.00399796,0.00268714,0.0133601,0.00296788,0.00984159,0.00268481,0.00358118,0.00738541,0.0181005,0.00538482,0.00197389,0.00223312,0.021654,0.0347662,0.0168314,0.00286968,0.0215962,1.4916,0.00342334,0.0141446,0.00237574,0.0126204,0.00221279,0.00386781,0.00382812,0.00998502,0.00324135,0.00172699,0.0118936,0.00800946,0.159337,0.00330046,0.00325977,0.0112237,0.00737974,0.0062762,0.00226908,0.00361548,0.00216578,0.119991,0.00305502,0.00377644,0.00275095,0.00366867,0.00285488,0.00224163,0.00214421,0.00225438,0.00521609,0.0115281,0.00620323,0.00347791,0.00792662,0.00259733,0.00395704,0.00724684,0.00323066,0.039552,0.00444583,0.0030569,0.00231077,0.00504237,0.00237868,0.442429,0.00317287,0.00561001,0.00244822,0.00330075,0.0051725,0.0139632,0.00753995,0.0062707,0.00251525,0.00460286,0.0102194,0.00198063,0.0125168,0.00199597,0.00369116,0.00259865,0.00217497,0.00509523,0.00316093,0.00168825,0.00971301,0.00905815,0.00579179,0.00772115,0.0155398,0.0178797,0.0181616,0.021542,0.028674,0.0337502,0.0402348,0.0471927,0.0558292,0.0634972,0.256838,0.0767212,0.0850733,0.0915108,0.0998833,0.104418,0.110259,0.118294,0.123398,0.127166,0.134616,0.138663,0.144185,0.147382,0.151774,0.156633,0.157293,0.158979,0.15943,0.161108,0.161036,0.162881,0.161032,0.160374,0.161132,0.161459,0.168455,0.161447,0.161662,0.161411,0.162319,0.161831,0.161857,0.161124,0.161979,0.162007,0.161841,0.161764,0.162142,0.16235,0.162054,0.163132,0.162687,0.16281,0.162745,0.162354,0.16287,0.162717,0.16337,0.163048,0.162967,0.163092,0.163285,0.163322,0.164148
0.00293761,0.00287149,0.0113619,0.00412707,0.0129315,0.00766753,0.00599246,0.00244299,0.00846749,0.00478771,0.0239287,0.00539773,0.00384337,0.00464856,0.00313197,0.00342032,0.00473847,0.00801519,0.00382245,0.00245921,0.005449,0.00425819,0.00307473,0.0036682,0.0049162,0.00870608,0.0020987,0.0105309,0.0911814,0.00436727,0.00807838,0.00222046,0.00650568,0.012242,0.0133083,0.00466384,0.0206849,0.00596115,0.0382036,0.0019223,0.00689192,0.0079517,0.0046587,0.00250795,0.0033424,0.00257832,0.00262665,0.00297558,0.00278903,0.00532882,0.0032072,0.00435587,0.00797045,0.00446188,0.00442622,0.0100541,0.00319677,0.0243668,0.0045797,0.00384565,0.0054443,0.00688283,0.00398396,0.00984174,0.0188538,0.00382507,0.00210943,0.00240104,0.00244515,0.00463884,0.00365655,0.0377025,0.0048688,0.00482494,0.00551966,0.00219622,0.00295182,0.091232,0.00278847,0.00597638,0.00581,0.00523045,0.00763206,0.00277503,0.0085874,0.00277043,0.00250958,0.00453026,0.00237761,0.00363793,0.00286101,0.00293979,0.00710595,0.0102897,0.0062947,0.018181,0.00207483,0.00190789,0.00862633,0.0156779,0.003788,0.00243083,0.00226383,0.0457093,0.00269682,0.0133171,0.021576,0.0034928,0.00267522,0.00188701,0.00721881,0.00257022,0.00596098,0.0110384,0.0023437,0.00378641,0.00327109,0.0113077,0.00286882,0.019795,0.0073144,0.00261987,0.00730475,0.00675244,0.00962536,0.00259847,0.00416433,0.0081628,0.00359316,0.0036858,0.00315339,0.00887517,0.011058,0.00146622,0.00195282,0.000995381,0.000576731,0.000545073,0.00053291,2.06946e-13,0.000730562,0.000564673,0.000682943,0.00106086,0.00915806,0.00461206,0.0041087,0.00853574,0.0205415,0.00431498,1.54355,0.00970784,0.00252738,0.0048757,0.0133748,0.00372322,0.00219114,0.00721921,0.00438985,0.00375692,0.0186244,0.00315767,0.0285158,0.0183069,0.0045332,0.0108124,0.0133621,0.00420032,0.00665287,0.00262648,0.00918017,0.00825809,0.00826003,0.00653376,0.149012,0.00265998,0.00437446,0.791533,0.00418882,0.0124956,0.0390539,0.0023388,0.00264966,0.00254005,0.00171998,0.00267931,0.00342495,0.00271005,0.0052198,0.00850671,0.0250093,0.0073148,0.026427,0.119991,0.0332735,0.0122817,0.00169757,0.0182866,0.00465581,0.00498668,0.0206947,0.0175867,0.00569091,0.0153984,0.0170804,0.00347791,0.00421658,0.00321519,0.00297683,0.0714737,0.00305917,0.00174385,0.0052842,0.00217674,0.0283935,0.00217777,0.00755592,0.00197313,0.0024813,0.0143118,0.00512915,0.00201586,0.00873512,0.00298425,0.00200073,0.00287933,0.00312286,0.0063446,0.0159258,0.00267139,0.00165663,0.00426131,0.00164066,0.0483293,0.00340022,0.00444173,0.0433335,0.00361167,0.00174161,0.00414654,0.00581589,0.00628156,0.0108596,0.0132236,0.0133227,0.0237028,0.0275491,0.0319854,0.0407293,0.0490519,0.0553872,0.0804582,0.0686565,0.0741565,0.0816518,0.0869696,0.0967471,0.103536,0.110132,0.116303,0.130961,0.120545,0.133855,0.137551,0.142204,0.25946,0.150432,0.153394,0.154737,0.157998,0.158891,0.160473,0.161152,0.161153,0.161105,0.161299,0.160989,0.161413,0.161199,0.161134,0.161936,0.161754,0.161501,0.161897,0.161827,0.161702,0.161423,0.161446,0.161978,0.162507,0.161992,0.161916,0.16235,0.162372,0.163132,0.164781,0.162587,0.162057,0.168812,0.162147,0.162949,0.162488,0.167267,0.163149,0.162919,0.163393,0.163587
0.0017675,0.00581099,0.0174126,0.0161,0.00713515,0.00246537,0.0037937,0.00278311,0.420731,0.00478771,0.00229393,0.00237235,0.00662713,0.00215276,0.00351384,0.00449007,0.00373853,0.0036498,0.00528605,0.00568195,0.00207473,0.112993,0.00809732,0.00367113,0.00760395,0.00346258,0.00987649,0.0191689,0.00367496,0.00207033,0.00531045,0.0131516,0.00273906,0.00240096,0.0452358,0.00277168,0.0240561,0.019715,0.00447973,0.22151,0.0327134,0.0107864,0.0377172,0.00612731,0.00420109,0.0412739,0.00194428,0.00383014,0.00687804,0.0135007,0.00405436,0.00200104,0.00588071,0.00586624,0.0241667,0.00238848,0.0151729,0.00963475,0.00557552,0.00314946,0.00431653,0.00169005,0.00298647,0.00360486,0.00393566,0.00620946,0.0251426,0.00209153,0.00259866,0.00257099,0.00365655,0.00435423,0.0030508,0.00379646,0.00679573,0.00333072,0.00486514,0.00716318,0.00472542,0.0052306,0.00534089,0.00328765,0.00412679,0.00347007,0.00244515,0.0120365,0.00232156,0.00495854,0.00226076,0.00335481,0.00211535,0.0169359,0.00252922,0.00544943,0.00637569,0.018181,0.00416478,0.00396309,0.00302534,0.0156779,0.429345,0.0044562,0.00954439,0.0022712,0.00508628,0.00292323,0.00289633,0.00375987,0.00298836,0.00584764,0.00340446,0.00270473,0.00721809,0.0110384,0.00475067,0.222401,0.00214264,0.00259863,0.00534673,0.00952609,0.00735427,0.00373618,0.00888347,0.0412831,0.00857578,0.00268245,0.00277185,0.00220568,0.090518,0.00226076,0.00759766,0.0114069,0.0194222,0.0105062,0.00219077,0.000662156,0.00060871,0.000581425,0.000482491,0.000346308,0.000476204,0.000555564,0.00121581,0.00129209,0.00215415,0.0023268,0.00801691,0.0146686,0.0240386,0.00741161,0.00674352,0.0122394,0.00205842,0.00685076,0.00475674,0.0146083,0.00344123,0.00210004,0.00323116,0.00254088,0.00300542,0.00738541,0.003777,0.00793276,0.00204649,0.00483402,0.00269933,0.00322315,0.0161499,0.00436723,0.00491363,0.00780799,0.00308709,0.00296058,0.443998,0.00520587,0.00672622,0.00283579,0.00274037,0.00274953,0.00234091,0.00543211,0.0061455,0.105192,0.00138919,0.003632,0.00325977,0.00375703,0.00737974,0.0031338,0.0637077,0.0062591,0.00913219,0.00681274,0.00640154,0.00460885,0.00312312,0.00405029,0.00854941,0.00361937,0.0046118,0.010428,0.00568316,0.00413326,0.00716491,0.052145,0.00664664,0.00238889,0.00405352,0.00543811,0.00767286,0.0154979,0.00444583,0.00927779,0.00231077,0.019698,0.00242152,0.00363714,0.00665196,0.00170032,0.00157866,0.00349413,0.0050389,0.00170252,0.00474761,0.00290587,0.00466878,0.00319293,0.0159258,0.00752971,0.0188234,0.00202575,0.00860007,0.00165684,0.00249087,0.0117339,0.0163117,0.00311009,0.00381688,0.00231774,0.00432169,0.00836065,0.0108596,0.0107002,0.012475,0.0235457,0.026611,0.0319854,0.0389652,0.0459016,0.0526915,0.0609388,0.0649773,0.0793656,0.0851704,0.0872893,0.0932342,0.101364,0.127195,0.113902,0.119166,0.124493,0.129585,0.136101,0.140557,0.144944,0.148272,0.152964,0.154259,0.156538,0.158544,0.168183,0.161056,0.160921,0.160796,0.161734,0.161645,0.161052,0.161349,0.161656,0.16088,0.161391,0.161644,0.161847,0.161752,0.161857,0.162265,0.161862,0.163763,0.16246,0.162184,0.162236,0.162089,0.162356,0.16252,0.162087,0.16258,0.257232,0.162903,0.162677,0.16264,0.16251,0.162874,0.161662,0.163283,0.163858,0.163461
0.00234169,0.00837696,0.00318957,0.0349408,0.00377233,0.00511472,0.0020916,0.00637565,0.00833827,0.0109078,0.00257093,0.00260558,0.005638,0.00675285,0.00266619,0.0145987,0.00437609,0.00357933,0.0238091,0.00339182,0.00375987,0.00588385,0.00623279,0.00775165,0.00476893,0.00797854,0.00387363,0.00986138,0.00359949,0.00194441,0.00188855,0.00275531,0.00322301,0.00275457,0.00303137,0.00405415,0.00341731,0.00838667,0.00367164,0.00621821,0.00322863,0.00356283,0.0283419,0.00274309,0.0078862,0.0150305,0.00616426,0.00248389,0.00327308,0.00321784,0.0100632,0.00227379,0.00872351,0.020584,0.00267731,0.0116583,0.00244934,0.0197037,0.0073144,0.00210867,0.00514281,0.00238932,0.0133167,0.00828171,0.00398169,0.00731461,0.00730467,0.00566302,0.00968276,0.00233365,0.00316179,0.0025784,0.00575698,0.0105779,0.00367532,0.032639,0.00357677,0.00500551,0.00924287,0.00437413,0.00254113,0.00287983,0.00350398,0.0027888,0.00237222,0.00325306,0.00862424,0.00208947,0.00924141,0.00544007,0.0028549,0.00328262,0.00364706,0.00240591,0.00637569,0.00268481,0.0084148,0.00542663,0.0151002,0.00328571,0.429345,0.00529804,0.00780868,0.00964497,0.00400498,0.00232836,0.00289633,0.00470829,0.00309594,0.00646212,0.0758046,0.00257022,0.0130778,0.00186674,0.00784438,0.0106336,0.00205066,0.00309074,0.00249939,0.0090614,0.00946028,0.00373618,0.0755188,0.0129413,0.0096725,0.0037264,0.00277185,0.0110021,0.00235547,0.00261242,0.0075505,0.00887517,0.00369334,0.0019931,0.00235973,0.00102706,0.000566717,0.000501242,0.000361199,0.000510306,0.000585814,0.000555564,0.00100819,0.00129209,0.0254178,0.00340246,0.0018443,0.0110919,0.00435355,0.0226942,0.00242176,0.0055757,0.0100991,0.0452348,0.00308055,0.00519313,0.0133601,0.00224257,0.00450086,0.00375692,0.0238306,0.00328577,0.00321794,0.00646234,0.00352216,0.00349084,0.00176641,0.0042162,0.00333077,0.00353783,0.00373841,0.00326945,0.00223094,0.00278238,0.011035,0.00330552,0.00197204,0.0120646,0.00901743,0.00471653,0.00199167,0.00338171,0.0154769,0.0397685,0.00679908,0.00240991,0.0833928,0.174518,0.00400903,0.0538868,0.00679408,0.00361548,0.00284337,0.00367432,0.018806,0.0208209,0.00338135,0.00389821,0.00231822,0.00423841,0.0096978,0.00393407,0.00568316,0.00280341,0.0133529,0.0100244,0.0036198,0.00253684,0.00310975,0.00724684,0.00517349,1.05856,0.00343263,0.00524946,0.00334174,0.00588487,0.00358681,0.442429,0.00212829,0.00231742,0.00398376,0.00729384,0.00402689,0.00217944,0.0146875,0.00256691,0.0598018,0.00410802,0.00209109,0.00265543,0.00539552,0.00202575,0.00302693,0.00265968,0.00183599,0.00428397,0.00803958,0.00451502,0.00426903,0.00283074,0.00326299,0.00644708,0.00922548,0.0107002,0.0165325,0.0196842,0.0254937,0.0312662,0.0370726,0.0433955,0.0545161,0.0555752,0.0636651,0.0873578,0.077258,0.0848846,0.0908817,0.0981625,0.104859,0.111187,0.112192,0.123896,0.128438,0.133986,0.137767,0.141907,0.146435,0.185814,0.15171,0.155297,0.158687,0.160284,0.160473,0.161292,0.160139,0.160969,0.161545,0.160337,0.161424,0.161334,0.161039,0.162359,0.161352,0.161333,0.160843,0.161629,0.161735,0.161638,0.160962,0.16233,0.161623,0.162225,0.161247,0.162387,0.162118,0.162317,0.162732,0.162476,0.162901,0.162493,0.162676,0.162438,0.162825,0.163084,0.162596,0.163216,0.16311
0.00253113,0.00186341,0.00370821,0.00217135,0.00966161,0.00511472,0.00442343,0.00707266,0.00534774,0.00259199,0.114114,0.0146302,0.00619511,0.00370697,0.00527964,0.00461179,0.00376009,0.00242184,0.00391071,0.00215804,0.225503,0.00232288,0.00407265,0.050521,0.0034342,0.00346258,0.0379391,0.00344815,0.00260553,0.00540347,0.0141721,0.00477371,0.0303299,0.00217288,0.00259161,0.00223027,0.0077232,0.00269731,0.0030953,0.00206701,0.00451932,0.00427816,0.00573959,0.00706953,0.00337796,0.00675266,0.0206476,0.00248389,0.00687804,0.00532882,0.0188686,0.00225717,0.00312628,0.00309058,0.00336708,0.00262578,0.00544959,0.00887535,0.00312636,0.00474482,0.0054443,0.00238932,0.00730467,0.00474452,0.00325959,0.00387373,0.00559053,0.00750848,0.00242471,0.00730467,0.00675284,0.00476902,0.00191233,0.00482494,0.0116216,0.00275797,0.00331906,0.00619528,0.0129563,0.00451545,0.0152462,0.00318613,0.00237222,0.0121639,0.00414369,0.00627054,0.150858,0.00331968,0.0226667,0.00340332,0.0070884,0.00302477,0.00706906,0.0077239,0.0167733,0.00337796,0.00281651,0.00989909,0.00779845,0.00369682,0.0041642,0.016237,0.00225748,0.0044533,0.00993641,0.00882774,0.00278612,0.00300069,0.00215467,0.00584764,0.00346732,0.0147827,0.00387984,0.00425686,0.00198371,0.00396451,0.00533533,0.00231928,0.00952609,0.00909514,0.00238391,0.032426,0.00267954,0.00435756,0.0138595,0.0102498,0.00203007,0.00409093,0.00609431,0.00253421,0.0073053,0.0036967,0.0301919,0.00808852,0.00100927,0.00173605,0.000603294,0.000361543,0.000460987,0.000447941,0.000561369,0.000791224,0.000633508,0.00090654,0.00625679,0.00469563,0.00233593,0.00224743,0.0240386,0.00245323,0.00756686,0.00192994,0.00221032,0.00373834,0.00470864,0.00427655,0.00706838,0.0160002,0.0091413,0.00686031,0.00319331,0.0024687,0.0102804,0.00432941,0.0026279,0.00223779,0.00931544,0.0164848,0.00378654,0.0189615,0.00352723,0.0123771,0.00361875,0.0119099,0.149012,0.00934206,0.0110156,0.00870221,0.00382812,0.00293905,0.00790956,0.0227795,0.00233858,0.0166987,0.00194439,0.134552,0.00468554,0.00573301,0.00737974,0.00472898,0.0811354,0.00529756,0.00422991,0.0111739,0.00353997,0.0208209,0.0227244,0.00774098,0.00285744,0.00361937,0.00433564,0.00256342,0.00345335,0.0115281,0.00571559,0.00478688,0.00297767,0.0324606,0.0206318,0.0723656,0.00228537,0.0207664,0.00150051,0.0030569,0.00587124,0.00267588,0.00358681,0.00253543,0.00161626,0.00344015,0.0138135,0.0030653,0.00880098,0.00519806,0.0146875,0.00364873,0.0218291,0.0063446,0.218247,0.00464497,0.00575975,0.0199752,0.00407631,0.0055379,0.00254024,0.00287961,0.00493762,0.00450846,0.00197714,0.0394481,0.0102543,0.0230764,0.0076726,0.0106542,0.0160045,0.0177061,0.0259345,0.032004,0.0354112,0.0401988,0.0478419,0.05535,0.0635222,0.0669369,0.0681682,0.0843372,0.089941,0.0982909,0.101826,0.109568,0.114544,0.120621,0.126375,0.130856,0.135817,0.140735,0.141621,0.153222,0.151795,0.154638,0.156429,0.160173,0.159727,0.160686,0.161152,0.161114,0.161512,0.161022,0.157338,0.161907,0.161346,0.162881,0.160066,0.161426,0.161515,0.161657,0.162144,0.161395,0.162446,0.161982,0.162589,0.161851,0.162002,0.162364,0.161602,0.162735,0.162128,0.162345,0.162598,0.162388,0.161921,0.163128,0.163018,0.163313,0.162864,0.162951,0.163128
0.00382677,0.0758033,0.00471423,0.00421931,0.00377233,0.0565493,0.00599246,0.00278311,0.016956,0.0137091,0.00442884,0.00750848,0.00262657,0.00276696,0.00879046,0.00376813,0.0113072,0.00239584,0.0040739,0.00250794,0.00262714,0.00373081,0.00318627,0.0567755,0.00753839,0.00346258,0.00657106,0.00808729,0.00308051,0.00348265,0.00398278,0.00371976,0.00390895,0.00272754,0.00359841,0.00288822,0.021762,0.00475051,0.0122701,0.0030009,0.0025273,0.00521147,0.00212179,0.012276,0.00275457,0.00396295,0.0036549,0.0157727,0.00687804,0.00887987,0.013142,0.0119127,0.0018314,0.00586624,0.004571,0.150917,0.0381248,0.0243668,0.00846111,0.00157479,0.224799,0.00962554,0.00298647,0.00567285,0.00325959,0.00819035,0.00531066,0.00289633,0.0198789,0.0150848,0.00316179,0.00199714,0.0030508,0.00379646,0.00304114,0.00479182,0.00215691,0.00272771,0.00198309,0.00780825,0.0112729,0.00420019,0.0251384,0.00394606,0.0771482,0.0458544,0.00862424,0.00280453,0.0019776,0.00223529,0.0129397,0.00472105,0.0126423,0.0146961,0.0033671,0.00596098,0.010566,0.00521156,0.00681794,0.00256518,0.00551956,0.00838661,0.00194413,0.00254949,0.0452573,0.0133171,0.00795187,0.00264779,0.00831039,0.0258811,0.00215816,0.00257022,0.00904804,0.025237,0.00319992,0.0380846,0.222411,0.00245928,0.00483199,0.00372308,0.0753124,0.00299847,0.00264674,0.00347242,0.00416473,0.00440027,0.0174294,0.00333662,0.00209041,0.00780844,0.00619522,0.0046587,0.0024388,0.00470704,0.00106084,0.000767969,0.000557812,0.000507427,0.000354109,2.06946e-13,0.000585814,0.000555581,0.000993314,0.00134678,0.00226161,0.223968,0.00359508,0.0136899,0.00205031,0.00313804,0.014125,0.00987822,0.00488342,0.00299585,0.00475674,0.0197718,0.00274326,0.0411837,0.00433709,0.0205906,0.00629488,0.00389992,0.00564694,0.00793276,0.0126374,0.0110825,0.00333151,0.00190552,0.00410869,0.00564694,0.00944272,0.00519125,0.0107642,0.00870335,0.011035,0.010153,0.00437446,0.00283579,0.00197581,0.0328174,0.0027063,0.00359471,0.00204727,0.105192,0.00364081,0.00267931,0.010543,0.00536568,0.01353,0.00272702,0.0302243,0.0107269,0.026427,0.00460493,0.00255605,0.0363268,0.00312312,0.154545,0.72007,0.00545033,0.0152705,0.00393407,0.00669048,0.0599171,0.0326218,0.0113225,0.431341,0.00547179,0.0308829,0.209218,0.0027863,0.0180712,0.00704597,0.00256532,0.00543488,0.00257719,0.00193567,0.00430087,0.0317805,0.0129205,0.0136906,0.00326885,0.00259991,0.0038871,0.0107863,0.00498228,0.00295707,0.00232447,0.00475407,0.00461909,0.00299231,0.00379555,0.00237767,0.00393115,0.00483254,0.00270405,0.0110525,0.00217004,0.00531342,0.0207756,0.00346362,0.0179845,0.568042,0.02496,0.0866905,0.0178259,0.0198773,0.0286704,0.0346558,0.0460489,0.0484419,0.0549058,0.0588497,0.0683491,0.0752051,0.0789083,0.0872905,0.0938186,0.108404,0.105253,0.122108,0.119394,0.123892,0.130192,0.131498,0.139189,0.141275,0.147443,0.150598,0.152808,0.155439,0.157003,0.158814,0.160022,0.160631,0.161506,0.161303,0.161419,0.161092,0.180224,0.16153,0.161785,0.161321,0.16148,0.161665,0.160954,0.161507,0.160849,0.161763,0.161909,0.161936,0.162001,0.161696,0.162402,0.162173,0.162414,0.162317,0.16205,0.162765,0.163325,0.162641,0.162391,0.162786,0.163075,0.163033,0.163084,0.163348
0.00382677,0.00205014,0.00331795,0.00811601,0.00481796,0.0758115,0.00767718,0.00506863,0.00310607,0.00456684,0.114114,0.00527953,0.00262657,0.0304703,0.0151429,0.0025056,0.0323981,0.00563124,0.00213695,0.00568195,0.00810919,0.0511094,0.00243337,0.00619127,0.0253738,0.00797854,0.0182417,0.0142078,0.0139012,0.00255766,0.00831012,0.00354504,0.0109816,0.00491347,0.00601733,0.00783629,0.00863376,0.00378379,0.113032,0.00621821,0.00243688,0.00894372,0.00470118,0.00505979,0.00324828,0.0150305,0.0125998,0.00248389,0.00334323,0.00175199,0.00367859,0.003355,0.0018314,0.00327458,0.00400009,0.00262578,0.00218747,0.0137347,0.00198158,0.0129409,0.00838642,0.0267706,0.00331978,0.00474452,0.00905251,0.0381392,0.00730467,0.00481135,0.00983147,0.00373604,0.00316179,0.0240409,0.0252997,0.0053594,0.0038094,0.222402,0.00331906,0.0142309,0.0243536,0.0033314,0.0103369,0.00224885,0.00398727,0.00235547,0.00387988,0.00274732,0.00322315,0.0252318,0.00294143,0.0113539,0.00368972,0.00254121,0.00588542,0.00329567,0.00219647,0.00227177,0.151489,0.00349284,0.00503205,0.0323456,0.00219627,0.0505491,0.00453026,0.0122634,0.0452573,0.0022896,0.00233478,0.0064505,0.0323121,0.00303773,0.0125701,0.00488736,0.00429814,0.00189783,0.0283007,0.0301846,0.00399915,0.00279681,0.00685986,0.0056672,0.00322594,0.0761395,0.00371987,0.00356273,0.00330821,0.0377043,0.0156026,0.00839648,0.00334212,0.00229254,0.0030379,0.00582895,0.00277801,0.0105787,0.00124048,0.00129198,0.000591852,0.000545713,0.000540942,2.06946e-13,0.000585814,0.000619812,0.000993314,0.00203232,0.00154302,0.00259898,0.00219127,0.00263858,0.0240386,0.00322317,0.00886414,0.00275808,0.0265778,0.0048688,0.0159166,0.00427655,0.0649661,0.0650286,0.00236138,0.00582922,0.00179941,0.00500438,0.0181005,0.0156142,0.00446837,0.0328331,0.00553868,0.00325731,0.00421757,0.0018835,0.00458599,0.00469374,0.00376703,1.52782,0.00257048,0.00781166,0.00642694,0.791533,0.00298355,0.00461413,0.00901938,0.0977512,0.015119,0.00460397,0.00199547,0.00330046,0.00477956,0.00219218,0.00400903,0.0031338,0.00328797,0.00811307,0.026427,0.0032493,0.00961131,0.00214017,0.00395833,0.00280153,0.00231822,0.0234981,0.00811395,0.00275326,0.00427564,0.0115081,0.0326218,0.00629237,0.00551112,0.00219408,0.00266481,0.00292981,0.0057232,0.00222048,0.0105509,0.0127261,0.00254066,0.00266637,0.00520406,0.00197313,0.00566574,0.00212508,0.0686958,0.00399209,0.00297534,0.00253954,0.00663292,0.00267562,0.00333789,0.0072426,0.00860489,0.00242613,0.00171829,0.00930449,0.00206758,0.00320015,0.00976001,0.0149294,0.0118626,0.00175918,0.00471707,0.00146039,0.00406845,0.00899803,0.0102285,0.0187391,0.0145597,0.0198395,0.0274619,0.0315621,0.0343864,0.0557667,0.0572429,0.0521885,0.0576829,0.0664456,0.0728835,0.0782012,0.104439,0.0929785,0.0998833,0.10486,0.10978,0.116184,0.121982,0.12695,0.13267,0.136585,0.140971,0.144944,0.147877,0.150461,0.155144,0.156141,0.158207,0.159828,0.159798,0.160877,0.160895,0.161132,0.161027,0.161009,0.161109,0.161483,0.161436,0.16067,0.161467,0.161446,0.161412,0.161678,0.161607,0.161736,0.161124,0.161866,0.162021,0.162387,0.164042,0.165413,0.162482,0.162151,0.162621,0.162339,0.163016,0.164283,0.163092,0.160055,0.163022,0.16263,0.162858
0.0026273,0.00269498,0.00435558,0.0107351,0.00363157,0.0758115,0.00405436,0.00357655,0.00464035,0.00294972,0.00697809,0.00211361,0.0147254,0.0142056,0.00495854,0.0092431,0.0116216,0.00281873,0.0238091,0.114705,0.0036219,0.00200414,0.00401766,0.00264931,0.011218,0.00537205,0.0182417,0.00573959,0.00359949,0.00224177,0.00167202,0.0133292,0.00348284,0.0031215,0.00427651,0.00797561,0.00348295,0.00475671,0.0286667,0.0119659,0.00689192,0.00315767,0.00229253,0.00260567,0.00318268,0.00227362,0.112583,0.0085402,0.00340176,0.00410929,0.00453804,0.00214879,0.00217416,0.00309058,0.00196895,0.0116583,0.0755352,0.00242482,0.00216487,0.00547865,0.00410866,0.00255967,0.0238539,0.00438496,0.00264073,0.0041089,0.00498564,0.00481135,0.00296937,0.00257099,0.00237242,0.00367121,0.0023244,0.00575491,0.00432941,0.00479182,0.00339048,0.00500551,0.0122309,0.00931809,0.00539829,0.00243076,0.00331978,0.0061158,0.0088748,0.00665632,0.00862424,0.00692513,0.00249387,0.00363793,0.00438733,0.0350219,0.00277801,0.00684153,0.0167733,0.00853991,0.00281879,0.00322315,0.00309538,0.00310597,0.0110916,0.00449694,0.00615369,0.00497948,0.00441882,0.0039067,0.00348515,0.00240008,0.00646791,0.00303773,0.00534774,0.00854934,0.0197582,0.0138422,0.00380419,0.0101456,0.0079115,0.00323711,0.00761599,0.00221111,0.00817462,0.0033093,0.0137812,0.0217779,0.00416473,0.00191226,0.0119365,0.00453824,0.00450831,0.00531673,0.00392129,0.00229473,0.00458533,0.00171938,0.00235973,0.000924485,0.000859752,0.000969089,0.000354109,0.000346308,0.00052471,0.000575685,0.00151482,0.00237736,0.00190066,0.00457137,0.00167489,0.00359316,0.0101112,0.0042571,0.0219843,0.00353066,0.00416485,0.0020797,0.00185,0.00427655,0.00590445,0.0215293,0.00438985,0.0090382,0.00410861,0.00710733,0.00534781,0.00365392,0.00512469,0.00253603,0.00545393,0.00370398,0.00378654,0.0267654,0.00263985,0.00630306,0.00480698,0.00342694,0.00408643,0.00213058,0.0303493,0.00258398,0.00252627,0.0748692,0.00234091,0.0225122,0.00219568,0.00458777,0.00451845,0.00437923,0.00372599,0.00536568,0.00967785,0.00417121,0.0059439,0.00305394,0.00794915,0.00434272,0.00515667,0.0346122,0.0112069,0.00531765,0.00415006,0.012182,0.00811395,0.063407,0.0542031,0.0599171,0.0032537,0.0023368,0.0019856,0.0835511,0.00622649,0.00217017,0.00257951,0.00683274,0.00179239,0.0127261,0.00353235,0.00371638,0.0209084,0.00870981,0.00665196,0.0484797,0.0138135,0.00400204,0.0326969,0.0374362,0.00366173,0.011813,0.00254778,0.468436,0.00290067,0.00205037,0.00308944,0.00256441,0.00473666,0.00320015,0.00163358,0.0103565,0.00306608,0.00252043,0.0172094,0.00446197,0.0143081,0.00512488,0.00929624,0.0163507,0.0125906,0.0234062,0.0237716,0.028047,0.0366908,0.038167,0.0450963,0.050056,0.057004,0.0629892,0.0702562,0.0770273,0.0829531,0.0884254,0.0944822,0.102077,0.108975,0.116007,0.119062,0.124854,0.130097,0.134496,0.139119,0.143898,0.25946,0.150631,0.153382,0.155384,0.157171,0.158888,0.160022,0.161048,0.160921,0.161165,0.160876,0.161461,0.161191,0.161163,0.161278,0.161955,0.161039,0.161094,0.161619,0.161519,0.162182,0.160858,0.161796,0.161886,0.169107,0.161588,0.16217,0.161375,0.161923,0.266091,0.162389,0.163099,0.16184,0.162187,0.16261,0.162169,0.162195,0.162906,0.165155
0.0348215,0.00167745,0.00251383,0.00227395,0.0037264,0.00768721,0.00281688,0.00268245,0.00368241,0.00584764,0.00257093,0.00405655,0.00700618,0.00514525,0.0239718,0.014148,0.00473847,0.00563124,0.00382245,0.00521158,0.0348175,0.00247772,0.00243337,0.00346721,0.00224044,0.00263184,0.00375988,0.0105309,0.00209406,0.0063257,0.00423565,0.00241632,0.00312089,0.0024747,0.00758529,0.00288822,0.00348295,0.00661767,0.0286667,0.00265252,0.00575515,0.0266523,0.00577605,0.00824325,0.0226408,0.00478771,0.0217789,0.0157727,0.00457561,0.0411364,0.075302,0.00603802,0.0106333,0.0091413,0.00400009,0.0116583,0.00257786,0.0061163,0.011619,0.00353555,0.00514281,0.00878961,0.00414573,0.00822751,0.00368982,0.0042203,0.00730467,0.0100632,0.00298458,0.00894666,0.00556996,0.00516367,0.00463884,0.0413561,0.00359959,0.222402,0.00339048,0.00272771,0.00368594,0.0059222,0.00268255,0.00420019,0.0098423,0.00347007,0.00285499,0.00295657,0.00215023,0.00496021,0.00872411,0.00658883,0.00261202,0.00472105,0.0215608,0.00529804,0.00548677,0.0452761,0.00405388,0.00316818,0.00265818,0.001815,0.00822634,0.00247155,0.00665684,0.00194086,0.0197862,0.00332186,0.00287917,0.00262714,0.425182,0.00445032,0.00282707,0.00226823,0.00387984,0.00611618,0.0411583,0.00242753,0.017569,0.00431484,0.00564694,0.0156219,0.011334,0.0129311,0.00322602,0.00275882,0.042212,0.0105309,0.00328845,0.00409093,0.00609431,0.00253421,0.00359439,0.035226,0.00309652,0.0105787,0.00216945,0.000896579,0.000602513,0.000501242,0.000517873,2.06946e-13,0.000368399,0.000526866,0.00064021,0.00113411,0.00676525,0.00229807,0.00586712,0.0044233,0.00220667,0.00464035,0.00622258,0.00160926,0.0055722,0.0251485,0.00678088,0.0146083,0.00433698,0.00601951,0.0034907,0.00375692,0.00378654,0.00266091,0.0102804,0.00873412,0.00779874,0.00275104,0.041319,0.149563,0.00191707,0.0058108,0.0019655,0.00277869,0.00293228,0.0323132,0.443998,0.00460427,0.1135,0.00673716,0.00705253,0.00740387,0.00234,0.00543211,0.00539094,0.0114578,0.00242258,0.0329486,0.0072371,0.00375703,0.0231014,0.00946529,0.0143095,0.00291731,0.026427,0.00843062,0.00986558,0.00557371,0.00910517,0.0134582,0.00452048,0.00357717,0.00344144,0.00276272,0.00299762,0.0115081,0.0564534,0.00283755,0.0037565,0.0835511,0.00773721,0.00412454,0.00346985,0.00447304,0.00704597,0.0030569,0.00224362,0.00316429,0.00327623,0.00870981,0.0225583,0.00245232,0.00360373,0.0332844,0.00297534,0.00177444,0.0017968,0.00325566,0.00538264,0.0066546,0.00244498,0.00213433,0.00360541,0.212382,0.0413859,0.00603787,0.0747136,0.00355716,0.00301986,0.00308107,0.00113181,0.00202491,0.00608401,0.00693901,0.0140871,0.0230232,0.0204542,0.0892928,0.0218945,0.0265139,0.0303416,0.0383262,0.0441909,0.04825,0.0549436,0.0735263,0.0683573,0.0741565,0.232348,0.0893537,0.088651,0.0992752,0.105253,0.110234,0.132618,0.124112,0.12766,0.132002,0.136217,0.141212,0.144235,0.148664,0.15113,0.154347,0.156141,0.158388,0.159422,0.159559,0.161046,0.233168,0.162451,0.161371,0.178805,0.161199,0.162291,0.161155,0.16084,0.160402,0.161371,0.161105,0.161612,0.16149,0.161478,0.161892,0.162642,0.161939,0.162426,0.162289,0.162161,0.162168,0.162971,0.162836,0.162057,0.162543,0.162826,0.162519,0.161932,0.163469,0.162438
0.0026273,0.00407152,0.00355394,0.00412707,0.00307608,0.00511472,0.0107351,0.0240515,0.00261291,0.0197816,0.0918406,0.00179904,0.00395318,0.00505944,0.00984035,0.00412696,0.00652377,0.00281873,0.00188695,0.00597611,0.00375987,0.0188639,0.0267285,0.00487269,0.0754951,0.0303218,0.00285985,0.00464008,0.00475597,0.00424088,1.55285,0.00241632,0.00491331,0.012242,0.00496022,0.00534765,0.00491347,0.0348411,0.00414616,0.00719098,0.0302061,0.00887498,0.00754796,0.00653366,0.018181,0.00679035,0.00731369,0.00486909,0.00253943,0.00370029,0.013142,0.00193321,0.0165205,0.00309058,0.00410902,0.0452043,0.00208628,0.00359316,0.00288795,0.00187557,0.00301515,0.00311103,0.00197502,0.00297707,0.00264073,0.00279151,0.00237761,0.00405436,0.00521171,0.00373604,0.0113744,0.112806,0.00270938,0.0025056,0.00228725,0.00252462,0.426084,0.00500551,0.00687881,0.00371386,0.0302972,0.0151095,0.00714439,0.00677173,0.0052514,0.00274732,0.00215023,0.00237215,0.00420252,0.00246171,0.00317908,0.0110021,0.00514281,0.0146961,0.0023314,0.0148843,0.00218662,0.00427509,0.0101201,0.00328571,0.00318957,0.00373618,0.00603016,0.0253966,0.00184993,0.00195568,0.00795111,0.0301894,0.0103815,0.0226626,0.00251841,0.00488736,0.0301634,0.00252731,0.00619109,0.00801661,0.0902862,0.0506603,0.00564694,0.0110384,0.00202828,0.0238568,0.00362975,0.00603776,0.0141203,0.00302759,0.00496709,0.0050069,0.0090614,0.0036858,0.0070794,0.00395573,0.011058,0.00321997,0.0012921,0.00320019,0.000582508,0.000562042,0.00048276,0.000457917,0.000470714,0.000632494,0.000609122,0.000994422,0.00121904,0.00255874,0.0040219,0.00512449,0.00210784,0.00436291,0.0189262,0.00336665,0.0100991,0.00303457,0.00309604,0.0197718,0.00750848,0.00746775,0.00249769,0.00381181,0.00823657,0.00266091,0.0253769,0.00733307,0.00350248,0.010044,0.00258591,0.00337907,0.00333077,0.003777,0.00381203,0.00369371,0.0162767,0.00396387,0.00310834,0.00446862,0.00221279,0.00754324,0.00595034,0.00605888,0.00301404,0.00327498,0.0059852,0.00271157,0.00720827,0.00487514,0.0072371,0.0214074,0.014091,0.00304622,0.0113866,0.00370736,0.00722334,0.00681274,0.0098864,0.00449329,0.022539,0.00354142,0.013492,0.00327534,0.00467089,0.0586555,0.0213722,0.00606954,0.00312319,0.00416529,0.0177672,0.0234985,0.00951641,0.209218,0.00346985,0.00244226,0.0234508,0.00303959,0.00543488,0.0184373,0.0129784,0.442429,0.00665196,0.00867903,0.0274009,0.00243603,0.00377869,0.0272069,0.00181913,0.00207335,0.0042021,0.00263306,0.00301203,0.00352517,0.00253199,0.00299188,0.00380004,0.00455605,0.00357089,0.00942151,0.00343431,0.00946404,0.00279118,0.0036472,0.00376235,0.0109664,0.00614306,0.0117476,0.0512901,0.0137215,0.0196695,0.0252038,0.0305699,0.0367541,0.0411688,0.0475022,0.0526771,0.059897,0.0668848,0.0736619,0.0851704,0.086705,0.0932342,0.0991487,0.100567,0.105749,0.11479,0.121961,0.125949,0.130776,0.135743,0.139625,0.140718,0.147043,0.151308,0.153394,0.155412,0.157117,0.159009,0.159948,0.160513,0.160467,0.161437,0.161682,0.161202,0.161211,0.161417,0.16094,0.161485,0.161682,0.160645,0.16559,0.160119,0.1612,0.161831,0.16182,0.161794,0.161845,0.161578,0.162491,0.180101,0.162209,0.162823,0.161976,0.162191,0.16209,0.162568,0.162277,0.162469,0.16276,0.162676
0.0381018,0.00303451,0.00435558,0.00311608,0.0046073,0.0044163,0.00293979,0.00372768,0.010569,0.00483185,0.0048948,0.00230403,0.00388388,0.00857835,0.00527964,0.0230903,0.00342291,0.00251201,0.0504266,0.0037264,0.00475654,0.00350722,0.00407265,0.00314713,0.00192376,0.00212402,0.00294861,0.00363157,0.00619555,0.00606323,0.113479,0.00229482,0.003905,0.00319331,0.00396451,0.00288822,0.14979,0.00803027,0.0238738,0.021563,0.00542164,0.0117613,0.00306056,0.00421755,0.00324828,0.00570484,0.0129357,0.00236074,0.00321191,0.00292182,0.0268442,0.0108337,0.00270474,0.00309058,0.00520467,0.00538301,0.00494016,0.00755684,0.00553113,0.00194747,0.00633218,0.00989909,0.00920596,0.0163914,0.00498723,0.00285098,0.00222926,0.00531061,0.0238195,0.00463884,0.00245679,0.00514891,0.00794216,0.00336691,0.00225569,0.00310592,0.0155358,0.00449719,0.00983147,0.00373828,0.00461209,0.00207544,0.0251384,0.00325949,0.00387988,0.0189577,0.00467952,0.00538218,0.00566317,0.00335481,0.0650039,0.0107861,0.00277801,0.00784438,0.00262059,0.00500508,0.423216,0.00322863,0.00228759,0.00905743,0.00647778,0.0282709,0.0138571,0.00214461,0.00254427,0.0305441,0.0171092,0.00375373,0.00237821,0.00279672,0.00544023,0.00453766,0.00271873,0.00316838,0.00603822,0.00540827,0.00592267,0.00341721,0.00341028,0.00221111,0.00292286,0.0033093,0.00463884,0.00951026,0.00408998,0.00211047,0.0228696,0.0579117,0.0198543,0.00227173,0.0035174,0.0114069,0.00244923,0.00473926,0.00119869,0.000802587,0.000893855,0.000501242,0.000471873,0.000364909,0.000465015,0.000534601,0.000633508,0.00162874,0.001263,0.112968,0.00369339,0.003788,0.045302,0.00193696,0.00972913,0.0283759,0.00247155,0.00391911,0.00407141,0.0751729,0.00433698,0.00364342,0.00209853,0.00757517,1.54432,0.0510947,0.00582934,0.00339841,0.00334262,0.00641389,0.00412679,0.00223543,0.00807776,0.0146105,0.0508236,0.00277869,0.00390122,0.0174265,0.011035,0.00265998,0.1135,0.00433295,0.00595604,0.00605888,0.00365323,0.00877751,0.0039196,0.00699337,0.00671998,0.0233097,0.00314813,0.0177835,0.0095216,0.0106625,0.00341892,0.00484194,0.00216578,0.00681274,0.00961131,0.00276783,0.0112069,0.00958982,0.00901528,0.0114746,0.00669427,0.00324253,0.00230632,0.00606954,0.00394966,0.0050289,0.431341,0.0835511,0.00266481,0.00181733,0.0340773,0.00306275,0.00603078,0.00524946,0.00543488,0.002867,0.00327623,0.00217946,0.00201519,0.0038486,0.00247274,0.00729384,0.00475965,0.0108758,0.00225629,0.00200464,0.00672639,0.00360795,0.00176587,0.00902516,0.00373378,0.00868091,0.00690466,0.00271041,0.0174649,0.00425185,0.00451433,0.00537229,0.00173719,0.0018269,0.0035809,0.0113077,0.00925476,0.0104006,0.0141294,0.0216727,0.0212559,0.0246673,0.0311697,0.0354993,0.0389623,0.0456988,0.053089,0.0641714,0.0611041,0.0683779,0.0787533,0.0850554,0.0879504,0.094466,0.101828,0.107369,0.113409,0.119783,0.123249,0.13996,0.13362,0.137584,0.238528,0.144257,0.148497,0.15182,0.154505,0.156072,0.162381,0.159274,0.160251,0.161518,0.161701,0.160879,0.161073,0.161141,0.229605,0.161471,0.160192,0.161015,0.161488,0.161761,0.160584,0.161528,0.161806,0.161289,0.161603,0.161768,0.161337,0.161835,0.162068,0.162731,0.162244,0.161989,0.162333,0.163339,0.162769,0.162928,0.162826,0.164662,0.16276
0.0113251,0.00261995,0.0905401,0.00383695,0.00289595,0.0073704,0.00416352,0.00268245,0.0129373,0.045241,0.00296778,0.00251382,0.00237222,0.00220125,0.00313197,0.00999193,0.00342291,0.075498,0.0238091,0.00392745,0.004275,0.00322306,0.00243337,0.00209157,0.0240709,0.00226833,0.00377976,0.00887987,0.0196851,0.0031657,0.00278016,0.00523075,0.01239,0.00307752,0.00192031,0.00223027,0.00863376,0.00434516,0.023876,0.021563,0.00278846,0.0266523,0.00187472,0.00371489,0.00275457,0.00375987,0.0036549,0.00297558,0.00257917,0.0411364,0.0019142,0.0030165,0.00270474,0.00264788,0.00272328,0.016752,0.0129264,0.00427642,0.00692554,0.00316828,0.00301515,0.0909553,0.0238539,0.00577434,0.00393566,0.0381392,0.0251426,0.00309598,0.00403669,0.00469022,0.00318274,0.00875351,0.0252997,0.00575491,0.0038094,0.00275797,0.005385,0.00218311,0.00476877,0.00481284,0.0105201,0.0411411,0.00188198,0.00372322,0.0088748,0.0458544,0.0058108,0.0144413,0.00945178,0.0156011,0.00665684,0.00260576,0.00588542,0.00356745,0.0661625,0.0452761,0.00358504,0.00379171,0.0040532,0.00222626,0.00797973,0.0100537,0.00845386,0.00485757,0.00345745,0.00810652,0.00253119,0.0171179,0.00361338,0.00775052,0.00418114,0.00295761,0.00375073,0.00872411,0.00362963,0.0152313,0.00308495,0.00245928,0.00228435,0.0351632,0.00203802,0.00391766,0.00393841,0.0646621,0.0219986,0.00191226,0.0564889,0.00581,0.00696835,0.00211355,0.00619522,0.0036967,0.00199306,0.00219627,0.0017022,0.000793134,0.000870929,0.000598469,0.000363696,2.06946e-13,0.000532362,0.000632494,0.000993314,0.000871061,0.00550362,0.0111336,0.0301509,0.00263858,0.00724736,0.015583,0.00513073,0.028237,0.00336665,0.0048688,0.0110304,0.00263353,0.00590445,0.00364342,0.00315767,0.00200927,0.0164803,0.00266091,0.00396321,0.00494223,0.016742,0.0083768,0.00688307,0.00511472,0.0644956,0.00564694,0.00296003,0.00277869,0.00951907,0.00256403,0.00422917,0.00603082,0.00249487,0.00259667,0.0157651,0.00379411,0.0237922,0.00379269,0.0059852,0.00699337,0.0140645,0.00255311,0.0192637,0.0198824,0.00205435,0.00326104,0.00679408,0.0107269,0.00479451,0.119991,0.00464759,0.00449329,0.00191696,0.00537222,0.72007,0.00371956,0.0216743,0.00378754,0.00799451,0.0407894,0.00514549,0.0100244,0.00297767,0.00804641,0.00319859,0.00750269,0.00253613,0.00271717,0.00304249,0.00331182,0.00451907,0.268747,0.00560627,0.00485818,0.00769965,0.00234378,0.00307565,0.00330075,0.00375841,0.00250943,0.00261115,0.011813,0.0172018,0.00265049,0.00244498,0.0021178,0.010608,0.00868091,0.00380004,0.0304722,0.00336637,0.0016984,0.00154627,0.0113172,0.0131564,0.00215169,0.00299093,0.0058731,0.0133145,0.0133241,0.018566,0.0192543,0.0202741,0.024967,0.0287278,0.034125,0.0398639,0.0458947,0.0513074,0.121618,0.0664238,0.0611886,0.0764365,0.0821985,0.091214,0.207088,0.100242,0.105253,0.142544,0.117684,0.122168,0.127455,0.131416,0.136585,0.570862,0.144792,0.141311,0.151005,0.153024,0.15503,0.155809,0.158804,0.16016,0.160714,0.160467,0.161229,0.163208,0.160855,0.163735,0.162065,0.160753,0.16187,0.161464,0.161025,0.161061,0.161719,0.161222,0.16031,0.16171,0.161893,0.161833,0.162457,0.162208,0.16248,0.162193,0.162049,0.161743,0.162115,0.162263,0.162362,0.162352,0.162861,0.162838
0.00831932,0.00298281,0.00496851,0.00412707,0.00194707,0.0137816,0.00416352,0.0240515,0.00382243,0.00695921,0.00233127,0.0513451,0.00237222,0.0108191,0.00266619,0.014148,0.00228435,0.00429194,0.00503175,0.00543561,0.00265384,0.0141678,0.00292249,0.021994,0.00584764,0.002201,0.00224884,0.00234366,0.0139012,0.0156152,0.00775191,0.00377233,0.0109816,0.00769613,0.222398,0.00875351,0.0101111,0.22565,0.00521945,0.00529806,0.00286203,0.00887498,0.00240019,0.00421755,0.0571159,0.00798379,0.00371374,0.00568592,0.00247784,0.00466377,0.00470317,0.00603802,0.00377516,0.00357197,0.004571,0.00266258,0.00733295,0.0122416,0.024158,0.00194747,0.00943936,0.00188524,0.0045464,1.55207,0.00363958,0.00287057,0.00294143,0.00245544,0.00706396,0.00173385,0.00520482,0.00239584,0.00236103,0.00333139,0.0101297,0.032639,0.00261191,0.00318628,0.0504265,0.00547687,0.00457962,0.0057759,0.00597265,0.00273551,0.00330838,0.0189577,0.00211535,0.00323944,0.00199505,0.00299812,0.045286,0.0103373,0.00733307,0.00520079,0.00389621,0.00433696,0.0073045,0.0413925,0.00306066,0.0036219,0.00797973,0.0101084,0.432601,0.00745898,0.0197862,0.0108895,0.00190543,0.00798379,0.00236657,0.00255974,0.0152255,0.00423577,0.00427075,0.00573609,0.00236137,0.00904779,0.00303788,0.00197772,0.00370472,0.0110384,0.223045,0.0136889,0.0042376,0.00599639,0.00201039,0.0031008,0.00612801,0.00255346,0.0077232,0.041983,0.00386408,0.00887517,0.0104616,0.00254821,0.00155048,0.00104241,0.000667964,0.000529065,0.000517873,2.06946e-13,0.000540359,0.000591077,0.000614598,0.000818335,0.001263,0.00261291,0.00838439,0.0119035,0.0197302,0.00294236,0.0125747,0.00326907,0.00774268,0.0102709,0.00430789,0.00908586,0.00274323,0.00359316,0.0150941,0.00319666,0.00549073,0.00340354,0.00350084,0.00409172,0.0022919,0.112496,0.00988081,0.00227177,0.00236683,0.0190291,0.00354438,0.0123771,0.0137576,0.00271507,0.00300499,0.00228846,0.00453817,0.00433295,0.00919167,0.00380636,0.00790956,0.0040817,0.00511,0.00280473,0.00671998,0.014828,0.0179809,0.00536568,0.00255471,0.00439086,0.0302243,0.00291731,0.0159605,0.00387272,0.00277866,0.0068538,0.00449305,0.0031408,0.0067863,0.005167,0.00172326,0.00276272,0.00209715,0.0045458,0.00312319,0.00405477,0.00551112,0.00558013,0.0324345,0.0205495,0.00517349,0.0180712,0.0112763,0.00519855,0.00254066,0.00911207,0.00468265,0.00608912,0.0313223,0.0129205,0.00449885,0.00330075,0.00338907,0.00788848,0.0127654,0.00325566,0.0172018,0.00255896,0.00317578,0.00875021,0.00370461,0.00417873,0.00267355,0.0304722,0.00346002,0.002353,0.00398254,0.0038299,0.00210368,0.00170747,0.00222077,0.00762104,0.00715516,0.00996315,0.0154738,0.0144216,0.0204001,0.0232945,0.0289577,0.0322635,0.0375762,0.0444297,0.0503976,0.0565883,0.0630275,0.0690155,0.0739603,0.0811959,0.0841906,0.093747,0.0937721,0.103797,0.110121,0.113115,0.120652,0.125007,0.127166,0.134072,0.138068,0.142197,0.145687,0.153679,0.151129,0.170593,0.15568,0.156305,0.159818,0.160162,0.160628,0.233168,0.16177,0.161322,0.161723,0.161204,0.160683,0.160875,0.161469,0.161929,0.162385,0.161539,0.161173,0.161282,0.16148,0.161459,0.162734,0.162226,0.161519,0.162308,0.162287,0.162074,0.161961,0.161998,0.162549,0.162351,0.161932,0.161135,0.162559
0.00473912,0.0113169,0.00355394,0.00557552,0.00488328,0.0073704,0.00416352,0.0240515,0.00853968,0.00456684,0.00379075,0.00172362,0.00544922,0.00218261,0.00364982,0.003408,0.00588532,0.0181001,0.00352715,0.0756187,0.00271887,0.00568214,0.00417854,0.0205648,0.00524918,0.00631345,0.00559113,0.00887987,0.00521969,0.00255755,0.113479,0.0240169,0.00211235,0.002808,0.00184674,0.00247775,0.00566292,0.00637621,0.00521945,0.00287143,0.00278846,0.018101,0.00342706,0.00649625,0.00420109,0.00470829,0.00213272,0.0157727,0.00225397,0.00875327,0.00164101,0.0035026,0.00270474,0.00274309,0.0215879,0.00842168,0.00309545,0.00577434,0.00206307,0.00300987,0.00355425,0.00559072,0.00195887,0.00215916,0.00264073,0.00292286,0.00357573,0.00381934,0.0118533,0.00366408,0.00870572,0.00754731,0.0030508,0.0506895,0.00308509,0.0114482,0.00678678,0.0151625,0.00819035,0.00481284,0.0126073,0.00447176,0.00714439,0.0064519,0.00323955,0.00227922,0.0101201,0.0144413,0.00694724,0.00320102,0.00317908,0.00269739,0.00291437,0.00346177,0.00503187,0.00596098,0.00259875,0.0456287,0.00807748,0.00211948,0.00822634,0.00186675,0.00270473,0.00241893,0.0137091,0.00670973,0.00401679,0.00486162,0.00420032,0.00599874,0.00309608,0.00248983,0.00375073,0.0113077,0.00350895,0.00393974,0.0129401,0.00216279,0.00544023,0.00754731,0.0024391,0.00269992,0.112717,0.00310579,0.0123091,0.00461678,0.0110024,0.0226586,0.00588549,0.00189525,0.0158202,0.011979,0.00423969,0.0105062,0.00219077,0.00102595,0.00064611,0.000529008,0.000549339,0.000523035,0.000712043,0.000538625,0.000621169,0.00283129,0.00431819,0.00202613,0.0110399,0.003788,0.0197302,0.0023271,0.0647495,0.0167531,0.00336708,0.0452348,0.00347248,0.00162365,0.00216923,0.00337294,0.00278313,0.00659833,0.0108805,0.00258514,0.0146005,0.00229391,0.00298847,0.0181352,0.00529271,0.0131988,0.00314253,0.00215919,0.00460766,0.00706906,0.0215423,0.00343391,0.00237574,0.0034898,0.1135,0.00200579,0.0430039,0.0039225,0.0028847,0.0040817,0.0568172,0.00699337,0.0140645,0.00457156,0.00227203,0.00627135,0.00360658,0.00230238,0.00202331,0.00387078,0.0141321,0.00215152,0.00353997,0.00460885,0.00320682,0.00958982,0.00387475,0.0185956,0.0101695,0.00791759,0.229244,0.0045458,0.00701618,0.0020864,0.0036198,0.0142518,0.0126485,0.00404963,0.0057232,0.00683274,0.0309321,0.00236906,0.00254066,0.00193349,0.0779785,0.00959976,0.00378461,0.00555158,0.00473623,0.0110855,0.00475965,0.00245315,0.0149459,0.00579055,0.0037906,0.00349824,0.00200693,0.00435769,0.00237872,0.212382,0.00649589,0.00206647,0.00317614,0.00726343,0.00255902,0.00214951,0.0436301,0.00358108,0.00403641,0.00790442,0.00979185,0.00939452,0.010779,0.0177704,0.0189568,0.0239572,0.0269934,0.0323782,0.0351944,0.0420724,0.0482654,0.0691211,0.0601278,0.0674199,0.072315,0.0812819,0.0846446,0.0907331,0.0958317,0.102076,0.107249,0.11299,0.117957,0.123895,0.127967,0.132568,0.136585,0.140684,0.217535,0.146881,0.152674,0.15171,0.15503,0.157002,0.158332,0.160284,0.159798,0.171496,0.161398,0.160649,0.16115,0.161109,0.160008,0.163178,0.160969,0.161847,0.162705,0.161529,0.163965,0.161609,0.161795,0.161897,0.16191,0.161892,0.161763,0.326487,0.161865,0.162287,0.161642,0.162487,0.162084,0.162426,0.162612,0.162548,0.162354
0.00650651,0.00559955,0.00241276,0.0107351,0.015026,0.0758115,0.0161562,0.00466151,0.00522684,0.00345003,0.00356273,0.00881878,0.00208397,0.00401766,0.00984035,0.00250049,0.0917135,0.00888347,0.00419991,0.00729577,0.0029665,0.0101456,0.0226667,0.0023607,0.00226604,0.0063257,0.0034147,0.00628863,0.00277176,0.00379078,0.00365648,0.00354504,0.00250791,0.00566292,0.00267518,0.0139867,0.00348295,0.00300746,0.00521945,0.00226675,0.149894,0.00528621,0.00473836,0.00280691,0.00946771,0.00798379,0.438079,0.00547687,0.00205862,0.00492117,0.011334,0.00248689,0.0301894,0.00962641,0.0215879,0.00277827,0.00226604,0.00265224,0.0502773,0.00810028,0.0282816,0.00559072,1.54369,0.00279128,0.00257246,0.00696857,0.00989909,0.00531061,0.0420542,0.00234598,0.020665,0.00438522,0.00878961,0.00281037,0.00283361,0.00279965,0.00446518,0.00208841,0.00646913,0.00547687,0.11544,0.00514492,0.00254274,0.00503221,0.0088748,0.00716343,0.00390884,0.0194033,0.00688843,0.0032765,0.00769699,0.00391258,0.00514281,0.00278098,0.00968302,0.00596098,0.00305335,0.222833,0.0036642,0.00304797,0.00204668,0.0021872,0.00267142,0.00336104,0.00666619,0.00339761,0.00230344,0.00262714,0.00492165,0.00892051,0.00794191,0.00248983,0.0156184,0.00475067,0.00227125,0.222367,0.00258591,0.00521175,0.0028785,0.00518223,0.00573959,0.0027623,0.00246024,0.00257093,0.0239318,0.00297719,0.00225761,0.00398408,0.0122519,0.00722729,0.0024493,0.0147454,0.00479338,0.0105787,0.00301745,0.000860621,0.000840053,0.000810893,0.000361199,2.06946e-13,0.000540359,0.000538625,0.00121581,0.00131579,0.00289572,0.0159088,0.00792298,0.00427655,0.00222946,0.00436291,0.00208395,0.00276696,0.00224892,0.00366492,0.00603839,0.0097104,0.00345018,0.0411757,0.0174032,0.016303,0.00186256,0.0115916,0.00218713,0.00172967,0.00459826,0.00244525,0.00962579,0.0131988,0.00932712,0.0181051,0.00354438,0.00478819,0.00507899,0.00345565,0.00422917,0.00603082,0.0109184,0.00580286,0.205858,0.167753,0.00508517,0.00541535,0.015119,0.00573217,0.0271263,0.00304927,0.00227203,0.00306041,0.014091,0.00230238,0.00393923,0.0768098,0.00284337,0.00296443,0.00329364,0.0108611,0.00439569,0.00752257,0.0067863,0.0167204,0.00467089,0.010428,0.00947119,0.00583509,0.00387351,0.00368962,0.00725848,0.00309976,0.00372655,0.0570367,0.00228537,0.00447304,0.0112763,0.00362567,0.00468689,0.0119473,0.00399741,0.0167092,0.00181896,0.00191137,0.00414423,0.00330075,0.0144048,0.0093852,0.015689,0.00229491,0.00237994,0.00294685,0.449339,0.0167587,0.0055797,0.00632477,0.00361747,0.00634848,0.00829424,0.00155064,0.00230426,0.00207492,0.00637548,0.00158195,0.0102634,0.00607418,0.00747306,0.568042,0.0122283,0.0157079,0.0158045,0.0187542,0.026998,0.0297794,0.0575161,0.0425374,0.0487609,0.0532143,0.0592205,0.0642401,0.0715891,0.0767212,0.0834197,0.089229,0.109497,0.101701,0.104862,0.111187,0.114613,0.11986,0.125054,0.129614,0.135098,0.138035,0.14218,0.146321,0.149164,0.151279,0.154271,0.155867,0.157577,0.158814,0.159934,0.163035,0.160861,0.16101,0.161112,0.161413,0.161288,0.163368,0.16438,0.161341,0.161147,0.161929,0.161958,0.16067,0.161889,0.159788,0.161831,0.161717,0.161746,0.162114,0.162254,0.164109,0.161897,0.169399,0.162113,0.162089,0.162447,0.206387,0.162529
0.00275894,0.00559955,0.00355394,0.00252222,0.0037264,0.0125838,0.00816241,0.00372768,0.0053704,0.0047085,0.0167878,0.00305444,0.00189191,0.00200497,0.00442061,0.0903327,0.00282497,0.0181001,0.00437668,0.00165059,0.00307053,0.00356305,0.00332045,0.00892262,0.00892262,0.00367169,0.00274694,0.00753836,0.00367154,0.00416485,0.00831039,0.051804,0.00328262,0.00429643,0.00665265,0.00331036,0.00348295,0.0238335,0.0124195,0.0163215,0.0147454,0.0100633,0.0110586,0.00653366,0.00757615,0.00879918,0.00373313,0.00547687,0.00321191,0.00677173,0.00552361,0.00514478,0.00432335,0.00240583,0.00357656,0.0457407,0.0240607,0.0240607,0.00380674,0.00300987,0.00220592,0.00441617,0.0110484,0.00254947,0.00519342,0.00599419,0.0138426,0.00621439,0.00221548,0.0283442,0.00379359,0.00396455,0.01196,0.0053594,0.0171016,0.0114482,0.0238539,0.0037937,0.00819035,0.00291422,0.0180985,0.00207544,0.025237,0.00347007,0.00599874,0.0412712,0.0411075,0.00307742,0.00257794,0.00646798,0.00358892,0.00288868,0.0754055,0.00427655,0.00317908,0.0155365,0.00509749,0.00915247,0.00771518,0.00685953,0.00410886,0.00385679,0.00845386,0.00224273,0.00472569,0.0147454,0.00366039,0.00679035,0.00502317,0.00279672,0.00229197,0.00423577,0.00293979,0.00186344,0.00482494,0.0118533,0.00979379,0.00766753,1.5529,0.00846111,0.0113165,0.00500423,0.00374525,0.00203328,0.00213271,0.0125701,0.0323061,0.00268767,0.00259191,0.0041272,0.00560997,0.00887517,0.00248088,0.0026398,0.00119869,0.000633498,0.000667964,0.000529065,0.000507425,2.06946e-13,0.000347087,0.000555581,0.000609555,0.000775331,0.00401909,0.00333163,0.00792298,0.00228954,0.00481316,0.005193,0.00438985,0.00694985,0.00416485,0.00368578,0.00201035,0.00620438,0.00430804,0.00253113,0.00259857,0.0017435,0.00414586,0.00290543,0.00221969,0.00727278,0.00210156,0.00327109,0.00688307,0.00270003,0.00717225,0.00629451,0.00341369,0.00229222,0.00390122,0.00294044,0.00300499,0.00770582,0.1135,0.00433295,0.00376219,0.073736,0.0292553,0.0455738,0.0154769,0.00355859,0.00428092,0.0102538,0.00871765,0.00297223,0.00570805,0.00230238,0.00679408,0.00902359,0.0183712,0.00296443,0.00699569,0.00656842,0.00253851,0.00752257,0.0067863,0.0459979,0.0216743,0.00421403,0.00902128,0.0207341,0.00265606,0.00645296,0.0189979,0.00547179,0.00556994,0.209218,0.00353778,0.00296103,0.00358501,0.00362567,0.00254066,0.00753855,0.0042025,0.00479146,0.00252747,0.00927571,0.00770766,0.00777377,0.070326,0.0108758,0.00517038,0.0044008,0.0301618,0.00438561,0.0126249,1.30278,0.00639887,0.00296331,0.00531575,0.00317746,0.00861033,0.00226426,0.00492552,0.00278108,0.00256193,0.00392564,0.00528126,0.00778647,0.00757479,0.979955,0.0133185,0.039946,0.0185524,0.107292,0.0266234,0.0324198,0.0343548,0.0402348,0.0489179,0.0490264,0.0575566,0.0663529,0.0689917,0.0741565,0.0810419,0.0829784,0.0901824,0.0984898,0.103883,0.244362,0.113067,0.121352,0.123895,0.127967,0.131401,0.138743,0.137949,0.144143,0.147064,0.150432,0.15171,0.154376,0.156994,0.158099,0.159267,0.159798,0.161221,0.161506,0.160977,0.161512,0.161149,0.161063,0.161161,0.161101,0.161229,0.161508,0.161251,0.160193,0.161356,0.16175,0.161784,0.161454,0.161767,0.161523,0.161163,0.161798,0.162223,0.161997,0.161938,0.161684,0.163309,0.162177,0.163441
0.00323701,1.54368,0.00259183,0.00692569,0.00198739,0.00511472,0.0107351,0.00239448,0.00407395,0.00468252,0.00311102,0.00199122,0.00544922,0.0902045,0.00327109,0.00633709,0.00211965,0.00464016,0.0455013,0.0037264,0.00617252,0.00380148,0.00248073,0.0190292,0.00507904,0.0063257,0.00245086,0.00808729,0.090357,0.00409132,0.00461206,0.0240169,0.225284,0.00307752,0.00758529,0.00281865,0.00348295,0.0507884,0.00272837,0.0163215,0.00788917,0.00484318,0.0110586,0.00290535,0.00842402,0.0146002,0.0064793,0.00179331,0.00457561,0.00630692,0.00540845,0.0113268,0.00215151,0.0047801,0.00333129,0.432292,0.0324956,0.00271075,0.00374485,0.00333006,0.00263463,0.00688283,0.00333701,0.0156111,0.00420139,0.00696857,0.0119225,0.0103183,0.0266094,0.00234598,0.00379359,0.00199319,0.00322741,0.0053594,0.00283361,0.00333072,0.0069688,0.0037937,0.00267946,0.00425218,0.00168747,0.00387792,0.00714439,0.0020544,0.00575491,0.00423287,0.00521156,0.0120249,0.0452684,0.00563124,0.00359418,0.00193024,0.00328557,0.00324821,0.00255974,0.00705452,0.00439012,0.00246524,0.0117148,0.00306075,0.00280912,0.00195514,0.00309059,0.00436967,0.00993641,0.00424088,0.00233478,0.00290543,0.00929098,0.00316828,0.00544023,0.00217139,0.00427075,0.00224735,0.00351233,0.00437644,0.00323945,0.0101664,0.00544023,0.00273554,0.00409041,0.0572747,0.0061955,0.00217352,0.0123091,0.00436952,0.00354466,0.0050879,0.00294963,0.00480645,0.00551297,0.0162166,0.00479338,0.00473926,0.00616943,0.00166204,0.00064611,0.000769,0,2.06946e-13,0.000351154,0.000534601,0.000586602,0.00131579,0.00121904,0.431773,0.0036642,0.0119035,0.00342859,0.00256933,0.00447833,0.00326907,0.00416485,0.0141115,0.00347248,0.00244861,0.00226291,0.00213971,0.00259857,0.00268478,0.00363715,0.00631287,0.0452154,0.0188343,0.00459826,0.0151966,0.00201164,0.00511472,0.00253595,0.00632533,0.00870596,0.00212651,0.0215423,0.00531561,0.0035352,0.00241003,0.0328929,0.00431487,0.155822,0.00740387,0.00505289,0.0040817,0.0026176,0.0398166,0.0140645,0.00232263,0.0179809,0.00910452,0.00234614,0.0114784,0.00679408,0.00902359,0.00811607,0.00215152,0.00699569,0.00362368,0.00333892,0.00475635,0.0067863,0.0287498,0.103627,0.00256342,0.00456278,0.00361749,0.00321579,0.00403499,0.0368712,0.00547179,0.0308829,0.00750269,0.00170488,0.00222048,0.00320331,0.0052481,0.00423438,0.0540035,0.0779785,0.00558688,0.0128764,0.00927571,0.0103026,0.00397206,0.00475965,0.0305065,0.00403147,0.0113648,0.00302145,0.0155407,0.00356604,0.0930314,0.00623354,0.00479518,0.0163891,0.0081187,0.00157403,0.00782207,0.00259059,0.00401331,0.0114805,0.00142282,0.0375761,0.00418547,0.00753095,0.00846459,0.0114112,0.0144333,0.0350333,0.0240087,0.0246054,0.0292313,0.0345271,0.0386603,0.0404347,0.0503976,0.0566169,0.0638303,0.0673635,0.0793656,0.0795736,0.0815348,0.0901543,0.097623,0.102055,0.107369,0.114572,0.130556,0.121401,0.127082,0.130574,0.134616,0.138176,0.142133,0.146782,0.149056,0.152208,0.153113,0.155823,0.157893,0.158979,0.158431,0.161065,0.160877,0.16216,0.161181,0.161179,0.161274,0.16133,0.161078,0.161451,0.161314,0.161464,0.161563,0.161057,0.161288,0.161282,0.161891,0.161495,0.172262,0.162056,0.161813,0.161916,0.161632,0.162343,0.16217,0.163731,0.162313,0.161849
0.0252375,0.00476279,0.00588541,0.0113539,0.00354433,0.0044163,0.00293979,0.00228462,0.00559129,0.00405436,0.00468276,0.00372315,0.0020761,0.00597638,0.00239393,0.0040901,0.00299168,0.00230893,0.00222463,0.0037264,0.00240027,0.00207476,0.00252928,0.00487269,0.00466166,0.00945723,0.00234278,0.00308049,0.004571,0.00205031,0.0056672,0.00524497,0.00784471,0.012242,0.0251558,0.00281865,0.00521171,0.00427947,0.00382256,0.00418158,0.0116678,0.00855794,0.00473836,0.00534781,0.00192321,0.00447795,0.00664607,0.00271241,0.0096289,0.00529806,0.00292286,0.00964356,0.0034726,0.425966,0.00619508,0.00822578,0.00246809,0.00487638,0.00309141,0.00233478,0.00328598,0.00451181,0.00659851,0.00266789,0.00278122,0.00491331,0.00507834,0.0025293,0.0413902,0.00566916,0.00254272,0.00361766,0.00457519,0.00238981,0.0156072,0.00775191,0.00261945,0.00259199,0.00646913,0.00547687,0.00875119,0.0266376,0.00242927,0.0414638,0.00249313,0.00372501,0.004241,0.00905608,0.0035405,0.00563124,0.00492723,0.00339182,0.0215608,0.00427655,0.00703415,0.00241754,0.0206849,0.00217806,0.0105405,0.0057924,0.429345,0.00449007,0.00327586,0.00257855,0.0113257,0.00416293,0.00621708,0.00753819,0.424218,0.0125798,0.00358504,0.0161859,0.00802614,0.00563558,0.00262451,0.00754796,0.0327598,0.0412884,0.00610174,0.0156219,0.00201543,0.00750822,0.0030508,0.00356273,0.00435572,0.00362963,0.00418246,0.0157675,0.00696835,0.00539031,0.00492668,0.0147454,0.00270001,0.0105062,0.00140466,0.00104241,0.000850561,0.000536861,0.000492156,0.000432638,0.00049396,0.000524179,0.000633508,0.000827292,0.0015815,0.00200745,0.422683,0.00732366,0.00342859,0.00263962,0.112545,0.00276696,0.00211443,0.0457743,0.00987788,0.00294007,0.0110872,0.0411757,0.00368972,0.431924,0.00237225,0.00713514,0.00375697,0.00873412,0.00298847,0.00469231,0.00443204,0.0569316,0.00718134,0.0412719,0.00341369,0.00888534,0.0044822,0.00810444,0.00637529,0.0505803,0.00719808,0.00497065,0.00234082,0.0233498,0.00939209,0.00503919,0.0039196,0.00339912,0.00224416,0.00446045,0.00314813,0.00290907,0.014091,0.00601257,0.00614883,0.0048551,0.00717486,0.00296443,0.00352577,0.0600803,0.00439569,0.011986,0.0033107,0.00547892,0.00244513,0.0586555,0.00230632,0.00583509,0.00253225,0.0308727,0.00328711,0.0835511,0.0132992,0.00344051,0.016109,0.00905806,0.00205386,0.00519855,0.00334174,0.00305025,0.00816845,0.00608872,0.00431044,0.00211724,0.00414423,0.0064113,0.00338907,0.00397392,0.0149459,0.00718489,0.00658666,0.00519539,0.00893851,0.0030383,0.00250876,0.0110427,0.0325788,0.0589011,0.0132029,0.00359871,0.00396622,0.00320259,0.00149028,0.00309866,0.00248462,0.00278971,0.00899803,0.011122,0.00945062,0.0220623,0.0158246,0.0219581,0.0229899,0.0297773,0.0351548,0.0396642,0.0436407,0.0487245,0.0548572,0.059897,0.0625444,0.0798173,0.0782012,0.0835455,0.0899811,0.093866,0.100242,0.103963,0.110113,0.115032,0.120205,0.124119,0.129217,0.131513,0.136217,0.141476,0.14377,0.147627,0.153354,0.153113,0.154973,0.156574,0.158388,0.159364,0.160646,0.16102,0.161701,0.161285,0.160814,0.160564,0.161181,0.161275,0.161322,0.161441,0.163082,0.161765,0.161257,0.1613,0.161745,0.161194,0.161685,0.162012,0.161923,0.161469,0.161589,0.16224,0.161976,0.161942,0.162163,0.162388,0.162161
0.00611636,0.00374473,0.0215707,0.00274317,0.00189231,0.0020221,0.00405436,0.0570454,0.00853968,0.00784612,0.00497032,0.00237797,0.0122318,0.00191576,0.00243703,0.00281037,0.00870608,0.0030626,0.00840548,0.045221,0.0456457,0.00323122,0.00559072,0.0120632,0.00466166,0.00212402,0.00473816,0.00808729,0.150935,0.00559086,0.00686885,0.0129354,0.00678678,0.004508,0.00611604,0.00875351,0.00878961,0.00333182,0.023876,0.0163215,0.00559071,0.00289669,0.0380049,0.00831039,0.00666557,0.0045266,0.00194423,0.0110844,0.00373824,0.00274299,0.00698984,0.00659799,0.00476852,0.00490833,0.00222533,0.00538301,0.00676038,0.00875304,0.00423997,0.00464021,0.0282816,0.037702,0.00268994,0.00742072,0.0030152,0.00692513,0.00923392,0.0129943,0.0413902,0.00366408,0.0139953,0.00518238,0.0100476,0.0138473,0.00349295,0.00275899,0.00353555,0.00225569,0.00372322,0.00822626,0.00247463,0.0207633,0.00443799,0.00677173,0.0126922,0.00525655,0.0138525,0.00323944,0.0035405,0.0112729,0.011922,0.00438494,0.00514281,0.00324821,0.0133217,0.00327118,0.00505049,0.00427655,0.006947,0.0226768,0.00537189,0.092496,0.00346258,0.00283728,0.00263113,0.00788917,0.00321498,0.00213785,0.00213452,0.00707917,0.0210022,0.00423577,0.00293979,0.0047444,0.00378099,0.00380659,0.00582909,0.0101664,0.00390167,0.00363784,0.00237227,0.00288861,0.00724385,0.0217779,0.00296788,0.00612731,0.00343267,0.00186675,0.00289711,0.004181,0.0115507,0.00203013,0.00398043,0.00312121,0.00184114,0.000792534,0.000870929,0.000572849,0.000587272,2.06946e-13,0.000368399,0.000552434,0.00066215,0.000837931,0.0244007,0.00461708,0.00283533,0.00252931,0.00328588,0.00487622,0.00586624,0.00631302,0.00211443,0.0161406,0.00334357,0.00311124,0.00306066,0.00276346,0.0030508,0.00319666,0.00391258,0.00401865,0.00375697,0.00596152,0.00266248,0.00420126,0.00678106,0.00588487,0.0129166,0.00294219,0.00318284,0.00514992,0.00270842,0.00828456,0.0027689,0.00220562,0.00672622,0.0147621,0.00268287,0.00401078,0.0028847,0.0418452,0.0134844,0.0185565,0.001749,0.0233097,0.00245415,0.0675381,0.00381018,0.00406393,0.00679408,0.430135,0.00472189,0.00243062,0.00389124,0.074601,0.00436922,0.00752257,0.00457565,0.00636172,0.00519101,0.00459768,0.0210202,0.00361749,0.00514549,0.00403499,0.0037565,0.00309976,0.00548482,0.00517408,0.0121089,0.00592529,0.00443891,0.00331182,0.00468689,0.00536771,0.00218079,0.00260536,0.00359371,0.00262941,0.00672605,0.00240605,0.00369196,0.00616563,0.054281,0.00701317,0.0126873,0.0219628,0.00652619,0.00463774,0.0172529,0.00302231,0.0325788,0.00241526,0.00317101,0.00310821,0.00287961,0.00196219,0.00149028,0.00348264,0.00498518,0.0206728,0.00747128,0.00804623,0.0115133,0.0136818,0.0160045,0.0202741,0.023967,0.0279331,0.0336341,0.037278,0.0430371,0.0482525,0.0545753,0.0588497,0.0642401,0.0725115,0.0776571,0.0782536,0.0880143,0.0924454,0.0993384,0.103754,0.244362,0.114071,0.118429,0.123887,0.127741,0.131416,0.135722,0.139119,0.142133,0.14613,0.148868,0.151164,0.153347,0.156259,0.157859,0.16046,0.159683,0.160389,0.161215,0.16163,0.161325,0.161507,0.161227,0.161154,0.160818,0.161363,0.163706,0.16088,0.161294,0.161259,0.16559,0.160958,0.161572,0.169275,0.161611,0.162118,0.161583,0.161953,0.162106,0.162264,0.162349,0.161871,0.16214
0.00258591,0.0113169,0.0130031,0.00384108,0.00294752,0.00352367,0.00337937,0.0205597,0.00672212,0.00328262,0.0107076,0.00301652,0.00266245,0.00202102,0.00513498,0.00267726,0.00228435,0.0411002,0.0455013,0.00300069,0.00532895,0.00323122,0.00342281,0.00653366,0.0146181,0.0282652,0.00285985,0.00963501,0.00979379,0.00416485,0.00186998,0.0129354,0.0151576,0.00243439,0.00427651,0.00242914,0.00878961,0.0902851,0.023876,0.0023958,0.00272771,0.0411144,0.00210699,0.00831039,0.00231084,0.00676262,0.00313689,0.00416446,0.00730323,0.0100533,0.00503236,0.0157868,0.00476852,0.0303015,0.0134302,0.00372991,0.00319656,0.00686947,0.00281044,0.00307053,0.002472,0.0252509,0.00830996,0.00801661,0.045507,0.0027232,0.0162441,0.0452495,0.00575515,0.00566916,0.00290531,0.00259139,0.0226239,0.00291446,0.00224547,0.00497032,0.00377233,0.00215297,0.00819035,0.00291422,0.0076959,0.00268714,0.0106156,0.00368603,0.0513238,0.0412712,0.00463057,0.00453026,0.00177818,0.00332455,0.00367133,0.00252841,0.0754055,0.00401919,0.00384108,0.00414503,0.00358504,0.00331964,0.0023201,0.0226768,0.00410886,0.00752054,0.00370821,0.0034173,0.0022902,0.00670973,0.00199306,0.00342841,0.42326,0.00506866,0.00710753,0.00248983,0.00467193,0.00872411,0.00612731,0.00540827,0.00547213,0.0058287,0.00299168,0.0110384,0.00292286,0.0572747,0.00656888,0.00312973,0.0219986,0.00297719,0.00354466,0.00372966,0.00382756,0.00206694,0.0040901,0.00239402,0.00271241,0.0348031,0.00140466,0.00158666,0.000586589,0.000588007,0.000477025,0.000424195,0.000347087,0.000837847,0.000586602,0.00148543,0.00172925,0.0159088,0.0113527,0.00512449,0.00958173,0.00219186,0.00240788,0.00544936,0.00281044,0.00459839,0.00248084,0.00579135,0.00255865,0.00208534,0.00631287,0.00419954,0.0228348,0.00273931,0.00299374,0.00391924,0.0152021,0.00469231,0.00224171,0.00215344,0.00213259,0.0039804,0.00245093,0.00447806,0.00390122,0.00516151,0.00546299,0.00316591,0.00673025,0.00276985,0.00625679,0.0748692,0.00385488,0.00223327,0.00539094,0.00652179,0.0115135,0.00529634,0.00278868,0.0061269,0.00967785,0.00276037,0.0250093,0.00392113,0.281095,0.0173351,0.00389124,0.00489807,0.00307953,0.00220265,0.00385112,0.00327534,0.00296838,0.0244229,0.00392291,0.00188862,0.00571559,0.00697744,0.00517388,0.00903979,0.0106652,0.00692406,0.00350386,0.00447304,0.00499344,0.00536241,0.00231077,0.00753855,0.00816845,0.00452739,0.00747961,0.003964,0.00473623,0.0100483,0.0063547,0.00238814,0.00225418,0.0401777,0.119558,0.00367822,0.00180387,0.0134442,0.00623102,0.00479518,0.00449132,0.0058896,0.00376667,0.00238078,0.00650248,0.00149355,0.00855436,0.00193407,0.00191308,0.00388286,0.00693038,0.00663808,0.00957699,0.0124384,0.0179393,0.0199717,0.0925716,0.0365476,0.04207,0.0369824,0.0414387,0.0469584,0.0522387,0.0581409,0.0637952,0.0690379,0.0751523,0.0798318,0.0858202,0.0936111,0.098204,0.100066,0.105253,0.110259,0.117828,0.130961,0.125097,0.130041,0.133985,0.137551,0.141972,0.14369,0.147542,0.150801,0.154191,0.154766,0.162947,0.158396,0.159487,0.159546,0.16018,0.160467,0.158558,0.160946,0.161257,0.161999,0.16102,0.161381,0.213726,0.201752,0.161681,0.160636,0.200843,0.161211,0.164037,0.161647,0.160983,0.161695,0.169042,0.16195,0.162077,0.162072,0.161826,0.162038,0.161997
0.0252375,0.0323601,0.00904292,0.00225747,0.00213512,0.0042151,0.00377161,0.0350126,0.0114299,0.00328262,0.00284385,0.00478074,0.00192953,0.00382507,0.00613825,0.00730467,0.0164842,0.0182384,0.00323976,0.00597611,0.00564934,0.00207476,0.0205765,0.00779625,0.0029846,0.00286101,0.00874398,0.00328598,0.00979379,0.00566926,0.0029709,0.0129413,0.00381693,0.00445356,0.00466384,0.00327109,0.0190483,0.0038778,0.0079614,0.0267413,0.00195111,0.00354437,0.00754796,0.00160682,0.0412315,0.0137091,0.00376009,0.0161552,0.150661,0.0101203,0.00698984,0.00392754,0.0041272,0.0047801,0.004571,0.00964548,0.00383695,0.00577434,0.0452265,0.00808752,0.00887538,0.00331974,0.00410843,0.0917183,0.00389803,0.00196168,0.00923392,0.00230005,0.00223136,0.00566916,0.0133126,0.00223786,0.0124958,0.0088748,0.00275539,0.00318627,0.00272754,0.00657919,0.0349222,0.0301538,0.0018754,0.00581033,0.0457407,0.0103984,0.00250184,0.00525655,0.0324883,0.0914071,0.00353083,0.00339048,0.00355858,0.0197666,0.00586631,0.00331964,0.00237234,0.00414503,0.0645465,0.0182833,0.00333201,0.00599896,0.0161604,0.0230113,0.00370821,0.00319743,0.00263113,0.00249388,0.006017,0.00505963,0.00405406,0.00445032,0.00238399,0.00227414,0.00293979,0.00299179,0.00263353,0.00198139,0.03237,0.0146637,0.00245299,0.00550511,0.00292286,0.0024009,0.0268609,0.00599639,0.0058852,0.00239576,0.0064964,0.00262714,0.00450831,0.00284022,0.0024493,0.0102227,0.0504574,0.00351689,0.00236596,0.00190144,0.00064611,0.00053265,0.000477025,0.000442386,0.000540359,0.000584282,0.000586602,0.00100823,0.001263,0.00479338,0.00792298,0.003788,0.00452283,0.112546,0.0268701,0.00611601,0.0015952,0.00330724,0.00516365,0.00927796,0.00475685,0.00294228,0.00421579,0.00331146,0.00295865,0.00267946,0.00299374,0.0226221,0.00355381,0.00422127,0.00436266,0.00215344,0.00941946,0.00564694,0.0153439,0.00224069,0.00352163,0.00382233,0.00422917,0.0349975,0.0151293,0.013791,0.00265509,0.0165228,0.00508517,0.00282606,0.00246689,0.00258785,0.00714111,0.00295293,0.00518821,0.00399352,0.00381018,0.00235341,0.00288707,0.0023073,0.0125646,0.00434272,0.0243168,0.0273395,0.00269314,0.00308562,0.0067863,0.00285503,0.00274833,0.00275326,0.00941797,0.100535,0.00393894,0.00243816,0.0037565,0.00633406,0.0365996,0.00692406,0.00303836,0.00336582,0.0112763,0.00325208,0.00989812,0.00908836,0.00417329,0.00377127,0.00431044,0.00611503,0.0146911,0.00225573,0.00778544,0.00800649,0.00373298,0.00356783,0.00197888,0.0140532,0.119757,0.00600588,0.00282992,0.00379231,0.0132521,0.00291292,0.0113051,0.00196978,0.00287961,0.00297612,0.00217004,0.00367521,0.0015641,0.00549431,0.0117939,0.00727668,0.011978,0.0134035,0.0163046,0.0264767,0.0234859,0.0299093,0.0307423,0.0344787,0.0406874,0.0464028,0.0545161,0.0567871,0.060078,0.0673438,0.0720948,0.07816,0.0841675,0.0890224,0.0933988,0.0991101,0.105383,0.10978,0.11458,0.119752,0.124038,0.127569,0.131967,0.136494,0.139658,0.142026,0.146044,0.153679,0.150687,0.153024,0.785336,0.157117,0.16094,0.168238,0.160667,0.16083,0.161367,0.160697,0.161169,0.161622,0.161272,0.160921,0.161722,0.162413,0.16054,0.161523,0.163809,0.161241,0.161508,0.161092,0.161397,0.16298,0.161883,0.161555,0.16058,0.162075,0.161783,0.162629,0.161894
0.00334369,0.00193007,0.0034299,0.00221499,0.0352284,0.00307482,0.0021426,0.00340923,0.0251448,0.00784612,0.00284385,0.00237797,0.00435558,0.0113072,0.00365655,0.00201814,0.0156022,0.00258511,0.00419991,0.0175667,0.00307053,0.0348443,0.00287837,0.0156022,0.00524918,0.00215477,0.00874398,0.00356752,0.00215926,0.00255755,0.00831039,0.00201814,0.00229696,0.0196888,0.00483362,0.00327109,0.00390895,0.0074534,0.0114021,0.00603796,0.00846778,0.0181299,0.0380049,0.0323074,0.0018979,0.00447795,0.00370398,0.00466389,0.00234542,0.00238936,0.00239457,0.00322597,0.00483171,0.00405378,0.00186668,0.00296946,0.00216163,0.00427642,0.00249402,0.0063507,0.00553868,0.00323122,0.00659851,0.00201161,0.00389803,0.00261887,0.00220103,0.00198945,0.00623258,0.00432169,0.00785518,0.00596104,0.00402217,0.0088748,0.0257038,0.0040901,0.00210867,0.00476861,0.00418158,0.032537,0.00357573,0.0411411,0.0286577,0.0269613,0.00514839,0.00525655,0.00364601,0.0502629,0.00312554,0.00240189,0.00494233,0.00347001,0.00758576,0.00775968,0.00213707,0.11278,0.00229481,0.00358107,0.0117148,0.00208841,0.00605747,0.00925262,0.00475051,0.222144,0.00831106,0.00286968,0.0205816,0.00316418,0.0156156,0.0024391,0.0125701,0.00414539,0.0075478,0.00253119,0.00296788,0.00273551,0.00219619,0.00304102,0.00338564,0.00648773,0.00808729,0.00180863,0.00366027,0.00312973,0.00507832,0.00390895,0.0064964,0.0157675,0.00409044,0.00542176,0.001892,0.00259875,0.00479338,0.00496696,0.00216945,0.000872657,0.00063301,0.000567725,0.000352147,0.000476765,0.000510306,0.000546898,0.000580672,0.00090654,0.00431819,0.00661811,0.0036642,0.003788,0.0024555,0.112546,0.00267538,0.00398727,0.0139997,0.00337294,0.00327289,0.00405655,0.00475685,0.00208534,0.00640584,0.00358546,0.00391258,0.00193333,0.0141542,0.00943236,0.00259191,0.00327109,0.00678106,0.00227126,0.00360476,0.0027914,0.00308509,0.0068986,0.00224965,0.016212,0.00281328,0.00443906,0.0110156,0.00519129,0.00234082,0.00316734,0.0292553,0.00379572,0.0039196,0.00453566,0.0115135,0.00197071,0.00910421,0.00220691,0.00302032,0.0051573,0.0131951,0.00389352,0.00403342,0.00182447,0.00400806,0.00641947,0.00254483,0.011986,0.0102262,0.00247011,0.00393616,0.00383691,0.0101481,0.0029089,0.00825282,0.00278827,0.00756734,0.0119943,0.00638499,0.00278887,0.00200164,0.0180712,0.00263124,0.00228958,0.0539647,0.0335674,0.00417329,0.00706915,0.00231773,0.00368225,0.00414423,0.00219953,0.00260625,0.00219421,0.00299233,0.0134461,0.00465957,0.00367822,0.00318633,0.0100983,0.0073454,0.00428938,0.00471052,0.00605183,0.0101624,0.00238078,0.0140888,0.00580527,0.00245209,0.00121007,0.0040532,0.0929608,0.00361534,0.0123343,0.00979314,0.0106542,0.0157233,0.0157776,0.0225396,0.0266387,0.0313953,0.0346955,0.0382806,0.0446313,0.0501224,0.0549436,0.0599127,0.0673414,0.0722588,0.0724948,0.0818434,0.0867506,0.0930731,0.0988414,0.101738,0.106859,0.113776,0.116952,0.121485,0.131647,0.131497,0.134496,0.134002,0.141071,0.144204,0.147891,0.146988,0.14903,0.155234,0.156584,0.157348,0.159052,0.162519,0.160986,0.162592,0.160001,0.162367,0.160938,0.161417,0.161211,0.161121,0.161276,0.161357,0.160989,0.162415,0.16175,0.208674,0.158252,0.16156,0.161745,0.161257,0.161736,0.161531,0.161678,0.161812,0.161834,0.161765
0.00756929,0.00434088,0.00904292,0.00357666,0.0182793,0.00281696,0.0164796,0.00656188,0.00646713,0.0110384,0.00320725,0.00311617,0.00582902,0.0028307,0.00306066,0.014148,0.00537205,0.00258511,0.00437201,0.00543561,0.0268943,0.00363779,0.0226667,0.00490848,0.00289627,0.00729829,0.0382397,0.0175234,0.00429646,0.00316165,0.00216021,0.00968302,0.00784471,0.0143652,0.00277168,0.00211774,0.00770378,0.00188198,0.00822634,0.0019726,0.00386625,0.00368223,0.0304597,0.00611613,0.00233146,0.00362975,0.0117245,0.00383711,0.00447689,0.00274299,0.00246175,0.00276699,0.0064505,0.00794243,0.0753334,0.0064778,0.00177911,0.00458032,0.00238401,0.0226408,0.00887538,0.0121551,0.00410843,0.00577434,0.00377233,0.00261937,0.0162441,0.149801,0.00386374,0.01029,0.0142078,0.0042376,0.00394928,0.0413561,0.00534796,0.00544883,0.00261945,0.00290533,0.00207544,0.0019558,0.00261887,0.00505937,0.00423983,0.00205046,0.00249313,0.00525655,0.0107771,0.00450831,0.00984246,0.00275815,0.00197512,0.00347001,0.00370729,0.0188834,0.00362353,0.00888943,0.00546797,0.00767701,0.00807748,0.0030151,0.0133221,0.00725636,0.00346258,0.0113263,0.00646781,0.00550215,0.0205816,0.0125798,0.00249683,0.00451946,0.00230403,0.00256426,0.00281028,0.00224735,0.0119128,0.0167966,0.0029053,0.00304102,0.00598007,0.00286988,0.00561252,0.00333176,0.00352593,0.00599639,0.00208142,0.0133751,0.0197627,0.0157675,0.0324522,0.034867,0.0161748,0.00443487,0.00214433,0.00198542,0.00301745,0.00113267,0.00107652,0.000793649,0.000507425,0,0.00052471,0.000552434,0.000586977,0.000818335,0.00129209,0.0035154,0.0036642,0.00308173,0.00357677,0.0268822,0.00652461,0.00943291,0.00182142,0.00281871,0.00201035,0.00240696,0.00196446,0.0108429,0.016175,0.00482284,0.00363715,0.00302178,0.00435353,0.00275457,0.00742576,0.0265969,0.00176631,0.0020142,0.00487606,0.0027914,0.00888359,0.00301546,0.00247233,0.00297425,0.00427207,0.00794442,0.00642694,0.0657146,0.00888159,0.00370997,0.0141232,0.00733493,0.0059852,0.0033848,0.00425163,0.00359591,0.00368138,0.00189917,0.00304321,0.00410363,0.00324085,0.00730436,0.00439536,0.00387272,0.0027588,0.00489807,0.0218621,0.00284539,0.00492435,0.00634918,0.00383728,0.00791759,0.00670065,0.00995778,0.00216165,0.00352066,0.00451403,0.0119943,0.00638499,0.00951217,0.00595324,0.00296103,0.00332454,0.00519855,0.00543488,0.0895221,0.00444979,0.00280282,0.00580528,0.0415824,0.0103026,0.0825776,0.00237535,0.00232987,0.0179924,0.00338772,0.00225412,0.00250143,0.00356604,0.00191508,0.00270175,0.030662,0.00212954,0.00209836,0.0084371,0.00724205,0.00309485,0.0124533,0.00365448,0.0127401,0.00394806,0.00339785,0.00368753,0.00785538,0.00810407,0.0168356,0.0211539,0.019158,0.0212412,0.0251837,0.0298077,0.0354068,0.0377729,0.0440545,0.0493158,0.053961,0.064914,0.0653538,0.0702873,0.0743802,0.0812514,0.0865946,0.0958121,0.0981273,0.102076,0.107249,0.110322,0.114613,0.142381,0.125018,0.12745,0.133108,0.136,0.139119,0.143202,0.146047,0.148868,0.150204,0.153023,0.155778,0.157293,0.158497,0.159828,0.160552,0.161334,0.161295,0.160934,0.161114,0.16104,0.162564,0.160008,0.161495,0.160856,0.161175,0.160662,0.160716,0.161524,0.161678,0.161624,0.161718,0.161353,0.161403,0.172952,0.161946,0.162783,0.166119,0.16225
