0.00067079,0.000636752,0.000622834,0.000607301,0.000590149,0.000568122,0.000551844,0.000533815,0.000520595,0.000505479,0.000491391,0.000478142,0.000465941,0.000453846,0.0004437,0.000434375,0.000424952,0.000417507,0.000408143,0.000404087,0.000398594,0.000388993,0.000398543,0.00038351,0.000349051,0.000372828,0.00041213,0.000365575,0.000374113,0.000400868,0.000415839,0.000424321,0.000419569,0.000397078,0.000439784,0.000530973,0.000608808,0.00063983,0.000665588,0.000686999,0.000710443,0.000723137,0.000737289,0.000764394,0.000802966,0.000837057,0.000866921,0.000895844,0.000936684,0.000956532,0.000984865,0.000997323,0.00100195,0.00100426,0.00100556,0.00100782,0.00100937,0.00101141,0.00101437,0.00101738,0.00101946,0.00101877,0.00101311,0.00101083,0.00103576,0.00104237,0.00103572,0.00103911,0.00104224,0.00104478,0.00104805,0.00105151,0.00105585,0.00105874,0.00106207,0.00106779,0.00107063,0.00107354,0.00107889,0.00108229,0.00108831,0.0010916,0.00109641,0.00110146,0.00110792,0.00111329,0.00111826,0.00112339,0.00112901,0.00113577,0.00114237,0.00115038,0.0011533,0.00115494,0.00117116,0.00117857,0.00118266,0.00119142,0.00120074,0.00120736,0.00121246,0.00122332,0.00123172,0.00124272,0.00125155,0.00125571,0.00126833,0.00128775,0.001297,0.00130711,0.00131858,0.00133804,0.0013635,0.00139087,0.00141603,0.0014343,0.00145296,0.001472,0.0014883,0.00150536,0.00152564,0.00154502,0.00156481,0.00157444,0.00160012,0.0016134,0.00163333,0.0016501,0.0016639,0.00168193,0.00169622,0.00171279,0.00173352,0.00176189,0.00177936,0.00180968,0.00183866,0.00186434,0.00189266,0.00192262,0.00195557,0.0019887,0.00201583,0.00205095,0.00208805,0.0021391,0.00215797,0.00220152,0.00223909,0.00229174,0.0023415,0.00239161,0.00244958,0.00249018,0.00253432,0.00256595,0.00262563,0.00265969,0.00269452,0.00272124,0.00274493,0.00276919,0.00279002,0.00282645,0.00285025,0.00286661,0.00288971,0.00291829,0.00295065,0.00297092,0.00299449,0.00301978,0.00304368,0.00307053,0.00309521,0.00311522,0.00314254,0.00317116,0.00319837,0.00321697,0.00324884,0.00327718,0.00329292,0.00331992,0.00334636,0.00336506,0.0033963,0.00342569,0.0034434,0.00346667,0.00350113,0.00352133,0.00351099,0.00357067,0.00364282,0.00362648,0.00355497,0.00352846,0.00355297,0.00342076,0.00306288,0.00211959,-0.000625876,0.00484245,0.00751129,0.00385352,0.00396183,0.00399545,0.00402033,0.00404413,0.0040756,0.00414662,0.00421732,0.00425199,0.00427235,0.00429401,0.00430479,0.00430775,0.00431201,0.00433255,0.00435144,0.00436539,0.00437679,0.00439414,0.00441342,0.00444422,0.00447923,0.00449588,0.00450904,0.00452747,0.00455434,0.00458329,0.00460898,0.00462938,0.00465565,0.00468011,0.00470661,0.00473161,0.00475459,0.00477713,0.00481065,0.00484039,0.0048566,0.0048823,0.00491201,0.00493398,0.00496072,0.00498964,0.00501078,0.00503558,0.00506084,0.00508604,0.00510895,0.00514359,0.00516123,0.00518581,0.00521358,0.00522778,0.00522692,0.00530314,0.00532091,0.00533538,0.00536584,0.00538136,0.00538401,0.0054599,0.00546936,0.00549388,0.00552677,0.00554921,0.00556479,0.00557915,0.00556501,0.00552396,0.0054731,0.00529603,0.00526112,0.0049891,0.00282752,0.00832577,0.00916698,0.00624326,0.00600022,0.00603209,0.00605333,0.00606166,0.00605906,0.00607467
0.00067079,0.000636752,0.000622834,0.000607301,0.000590149,0.000568122,0.000551844,0.000536481,0.000520595,0.000505479,0.000491391,0.000478142,0.000465941,0.000453846,0.0004437,0.000434375,0.000424952,0.000417507,0.000408143,0.000404113,0.000398594,0.000388993,0.000398543,0.00038351,0.000350732,0.000372828,0.00041213,0.000365575,0.000374113,0.000396074,0.000415839,0.000424321,0.000419569,0.000397078,0.000439784,0.000530973,0.000608808,0.00063983,0.000665588,0.000686999,0.000710443,0.000723137,0.000737289,0.000764394,0.000802966,0.000837057,0.000866921,0.000895844,0.000936684,0.000956532,0.000981526,0.000997323,0.00100195,0.00100426,0.00100556,0.00100782,0.00100937,0.00101141,0.00101324,0.00101738,0.00101946,0.00101877,0.00101611,0.00101083,0.00103576,0.00104237,0.00103572,0.00103911,0.0010418,0.00104478,0.00104805,0.00105151,0.00105585,0.00105874,0.00106207,0.00106779,0.00107063,0.00107354,0.00107889,0.00108229,0.00108831,0.0010916,0.00109641,0.00110146,0.00110792,0.00111329,0.00111826,0.00112339,0.00112901,0.00113577,0.00114237,0.00115038,0.0011533,0.00115494,0.00117116,0.00117857,0.00118266,0.00119142,0.00120074,0.00120736,0.00121246,0.00122332,0.00123172,0.00124272,0.00125155,0.00125571,0.00126833,0.00128775,0.001297,0.00130711,0.00131858,0.00133804,0.0013635,0.00139087,0.00141603,0.0014343,0.00145296,0.001472,0.0014883,0.00150536,0.00152564,0.00154179,0.00156481,0.00157444,0.00160012,0.0016134,0.00163333,0.0016501,0.0016639,0.00168193,0.00169622,0.00171028,0.00173352,0.00176189,0.00177936,0.00180507,0.00183866,0.00186434,0.00189266,0.00192262,0.00195557,0.0019887,0.00201583,0.00205095,0.00208805,0.00211972,0.00215797,0.00220152,0.00223909,0.00229174,0.0023415,0.00239161,0.00244958,0.00249018,0.00253432,0.00256595,0.00262563,0.00265337,0.00269452,0.00272124,0.00274493,0.00276919,0.00279002,0.00282645,0.00284553,0.00286661,0.00288971,0.00291829,0.00295065,0.00297092,0.00299449,0.00301978,0.00304368,0.00307053,0.00309521,0.00311522,0.00314254,0.00317116,0.00319837,0.00321697,0.00324884,0.00327718,0.00329292,0.00331992,0.00334636,0.00336506,0.0033963,0.00342569,0.0034434,0.00346667,0.00350113,0.00352133,0.00351099,0.00357067,0.00364329,0.00362648,0.00355497,0.00352846,0.00355297,0.00342076,0.00306288,0.00211959,-0.000229865,0.00484245,0.00751129,0.00385352,0.00396183,0.00399545,0.00402033,0.00404151,0.0040583,0.00414662,0.00421732,0.00425199,0.00427235,0.00428692,0.00430479,0.00430775,0.00431201,0.00433255,0.00435144,0.00436539,0.00437679,0.00439414,0.00441342,0.00444422,0.00447923,0.00449588,0.00450904,0.00452747,0.00455434,0.00458329,0.00460898,0.00462938,0.00465565,0.00468011,0.00470661,0.00473161,0.00475459,0.00477713,0.00481065,0.00484039,0.00485386,0.0048823,0.00491201,0.00493398,0.00496072,0.00498663,0.00501078,0.00503558,0.00506084,0.00508604,0.00510895,0.00514359,0.00516123,0.00517615,0.00521358,0.00522778,0.00521304,0.00530314,0.00532091,0.00533538,0.00536584,0.00538136,0.00538401,0.0054599,0.00546936,0.00549388,0.00552677,0.00554921,0.00556479,0.00557915,0.00556501,0.00552396,0.0054731,0.00529603,0.00526112,0.0049891,0.00282752,0.00832577,0.00916698,0.00624326,0.00600022,0.00603209,0.00605333,0.00606207,0.00605906,0.00607467
0.148713,0.000636752,0.000622834,0.000607301,0.000590149,0.000568122,0.000551844,0.000536481,0.000520595,0.000505479,0.000491391,0.000480309,0.000465941,0.000453846,0.0004437,0.000434375,0.000424952,0.000417507,0.000408143,0.000404113,0.000398594,0.000388993,0.000398543,0.00038351,0.000350732,0.000372828,0.00041213,0.000365575,0.000374113,0.000396074,0.000415839,0.000424321,0.000419569,0.000397078,0.000439784,0.000530973,0.000608808,0.00063983,0.000661249,0.000686999,0.000710443,0.000723137,0.000737289,0.000764394,0.000802966,0.000837057,0.000866921,0.000895844,0.000926703,0.000956532,0.000981526,0.000997323,0.00100195,0.00100385,0.00100556,0.00100714,0.00100937,0.00101141,0.00101324,0.00101738,0.00101946,0.00101915,0.00101611,0.00101083,0.00103576,0.00104237,0.00103636,0.00103911,0.0010418,0.00104478,0.00104805,0.00105151,0.00105585,0.00105874,0.00106207,0.00106779,0.00107063,0.00107354,0.00107889,0.00108229,0.00108831,0.0010916,0.00109641,0.00110146,0.00110792,0.00111329,0.00111826,0.00112339,0.00112901,0.00113577,0.00114237,0.00115038,0.0011533,0.00115494,0.00117116,0.00117687,0.00118266,0.00118827,0.00120074,0.00120736,0.00121246,0.00122332,0.00123172,0.00124272,0.00125155,0.00125571,0.00126833,0.00128775,0.001297,0.00130711,0.00131858,0.00133804,0.0013635,0.00139087,0.00141603,0.0014343,0.00145296,0.001472,0.0014883,0.00150536,0.0015224,0.00154179,0.00156481,0.00157444,0.00160012,0.0016134,0.00163333,0.0016501,0.0016639,0.00168193,0.00169622,0.00171028,0.00173352,0.00176189,0.00177936,0.00180507,0.00183866,0.00186434,0.00189266,0.00192262,0.00195557,0.0019887,0.00201583,0.00205095,0.00208805,0.00211972,0.00215797,0.00220152,0.00223909,0.00229174,0.0023415,0.00239161,0.00244958,0.00249018,0.00252728,0.00256595,0.00262563,0.00265337,0.00269452,0.00272124,0.00274493,0.00276919,0.00279002,0.00282645,0.00284553,0.00286661,0.00288971,0.00291829,0.00295065,0.00297092,0.00299449,0.00301978,0.00304368,0.00307053,0.00309521,0.00311522,0.00314254,0.00317116,0.00319837,0.00321697,0.00324884,0.00326914,0.00329292,0.00331992,0.00334636,0.00336506,0.0033963,0.00342569,0.0034434,0.00346667,0.00350113,0.00352133,0.00351099,0.00357067,0.00364329,0.00362648,0.00355497,0.00352846,0.00355297,0.00342076,0.00306288,0.00211959,-0.000229865,0.00484245,0.00751129,0.00385352,0.00396183,0.00399545,0.00402033,0.00404151,0.0040583,0.00414662,0.00421732,0.00425199,0.00427235,0.00428692,0.00430479,0.00430775,0.00431201,0.00433255,0.00435144,0.00436539,0.00437679,0.00439414,0.00441342,0.00443768,0.00447923,0.00449588,0.00450904,0.00452747,0.00455434,0.00457693,0.00460898,0.00462938,0.00465565,0.00468011,0.00470661,0.00473161,0.00475459,0.00477713,0.00481065,0.00484039,0.00485386,0.0048823,0.00491201,0.00493398,0.00496072,0.00498363,0.00501078,0.00503558,0.00506084,0.00508604,0.00510895,0.00514359,0.00516123,0.00517615,0.00521358,0.00522778,0.00521304,0.00530314,0.00532091,0.00533538,0.00536584,0.00538136,0.00538401,0.0054599,0.00546936,0.00549388,0.00552677,0.00554921,0.00556479,0.00557915,0.00556501,0.00552396,0.0054731,0.00529603,0.00526112,0.0049891,0.00282752,0.00832577,0.00912844,0.00624326,0.00600022,0.00603209,0.00605333,0.00606207,0.00605906,0.00607467
0.148713,0.148713,0.000622834,0.000607301,0.000590149,0.000568122,0.000551844,0.000536481,0.000520595,0.000507869,0.000491391,0.000480309,0.000465941,0.000453846,0.0004437,0.000436,0.000424952,0.000417507,0.000409257,0.000404113,0.000398594,0.000388993,0.000398543,0.000389472,0.000350732,0.000372828,0.00041771,0.000365575,0.000374113,0.000396074,0.000415839,0.000424321,0.000425259,0.000397078,0.000439784,0.000530973,0.000608808,0.00063983,0.000661249,0.000686999,0.000710443,0.000723137,0.000737289,0.000764394,0.000796229,0.000837057,0.000866921,0.000895844,0.000926703,0.000956532,0.000981526,0.000997323,0.00100195,0.00100385,0.00100556,0.00100714,0.00100937,0.00101141,0.00101324,0.00101623,0.00101946,0.00101915,0.00101611,0.00101083,0.00103576,0.00104237,0.00103636,0.00103911,0.0010418,0.00104478,0.00104734,0.00105151,0.00105585,0.00105759,0.00106207,0.00106779,0.00107063,0.00107354,0.00107889,0.00108229,0.00108831,0.0010916,0.00109641,0.00110146,0.00110792,0.00111329,0.00111734,0.00112339,0.00112901,0.00113463,0.00114237,0.00115038,0.00115306,0.00115494,0.00117116,0.00117687,0.00118266,0.00118827,0.00120074,0.00120736,0.00121246,0.00122332,0.00123172,0.00124272,0.00125155,0.00125571,0.00126833,0.00128775,0.001297,0.00130711,0.00131858,0.00133804,0.0013635,0.00139087,0.00141603,0.0014343,0.00145296,0.00146879,0.0014883,0.00150536,0.0015224,0.00154179,0.00156481,0.00157444,0.00160012,0.0016134,0.00163333,0.0016501,0.0016639,0.00168193,0.00169622,0.00171028,0.00172867,0.00176189,0.00177936,0.00180507,0.00183374,0.00186434,0.00189266,0.00191742,0.00195557,0.0019887,0.00201583,0.00205095,0.00208805,0.00211972,0.00215797,0.00219513,0.00223909,0.00229174,0.0023415,0.00239161,0.00244958,0.00248199,0.00252728,0.00256595,0.00262563,0.00265337,0.00269452,0.00272124,0.00274493,0.00276498,0.00278598,0.00282645,0.00284553,0.00286661,0.00288971,0.00291829,0.00293879,0.00297092,0.00299449,0.00301978,0.00304368,0.00307053,0.00309521,0.00311522,0.00314254,0.00317116,0.00319837,0.00321697,0.00324884,0.00326914,0.00329292,0.00331992,0.00334636,0.00336506,0.0033963,0.00342569,0.0034434,0.00346667,0.00350113,0.00352133,0.00351099,0.00357067,0.00364329,0.00362648,0.00356402,0.00352846,0.00355297,0.00342076,0.00306288,0.00211959,-0.000229865,0.00484245,0.00751129,0.00385352,0.00396183,0.00399545,0.00402033,0.00404151,0.0040583,0.00414662,0.00421732,0.00425199,0.00427235,0.00428692,0.00430479,0.00430775,0.00431201,0.0043244,0.00435144,0.00436539,0.00437679,0.00439414,0.00441342,0.00443768,0.0044664,0.00449588,0.00450904,0.00452747,0.00455434,0.00457693,0.00460898,0.00462938,0.00465565,0.00468011,0.00470661,0.00473161,0.00475459,0.00477713,0.00481065,0.00484039,0.00485386,0.0048823,0.00491201,0.00493398,0.00496072,0.00498363,0.00501078,0.00503558,0.00506084,0.00508604,0.00510895,0.00514359,0.00516123,0.00517615,0.00521358,0.00523741,0.00521304,0.00530843,0.00532091,0.00533538,0.00536584,0.00538136,0.00538401,0.0054599,0.00546936,0.00549388,0.00551642,0.00554921,0.00556479,0.00557915,0.00556501,0.00552396,0.0054731,0.00529603,0.00526112,0.0049891,0.00282752,0.00571878,0.00912844,0.00624326,0.00600022,0.00603209,0.00605333,0.00606207,0.00605906,0.00607467
0.147974,0.147974,0.147974,0.147974,0.000590149,0.000568122,0.000551844,0.000536481,0.000520595,0.000507869,0.000491391,0.000480309,0.000465941,0.000455672,0.0004437,0.000436,0.000424952,0.000417507,0.000409257,0.000404113,0.000398594,0.000388993,0.000398543,0.000389472,0.000350732,0.000372828,0.00041771,0.000384916,0.000374113,0.000396074,0.000415839,0.000424321,0.000425259,0.000397078,0.000439784,0.000530973,0.000608808,0.000635991,0.000661249,0.000686999,0.000710443,0.000723137,0.000737289,0.000764394,0.000796229,0.000837057,0.000866921,0.000895844,0.000926703,0.000956532,0.000981526,0.000997323,0.00100195,0.00100385,0.00100556,0.00100714,0.00100937,0.00101141,0.00101324,0.00101623,0.00101946,0.00101915,0.00101611,0.00101083,0.00103576,0.00104237,0.00103636,0.00103816,0.0010418,0.00104478,0.00104734,0.00105151,0.00105585,0.00105759,0.00106207,0.00106779,0.00107063,0.00107354,0.00107889,0.00108229,0.00108831,0.0010916,0.00109641,0.00110146,0.00110792,0.00111329,0.00111734,0.00112339,0.00112901,0.00113463,0.00114237,0.00115038,0.00115306,0.00115494,0.00117116,0.00117687,0.00118266,0.00118827,0.00119919,0.00120736,0.00121246,0.00122003,0.00123172,0.00124272,0.00125155,0.00125571,0.00126833,0.00128775,0.001297,0.00130711,0.00131603,0.0013337,0.0013635,0.00139087,0.00141603,0.0014343,0.00145296,0.00146879,0.0014883,0.00150536,0.0015224,0.00154179,0.00156481,0.00157444,0.00160012,0.0016134,0.00163333,0.0016501,0.0016639,0.00168193,0.00169622,0.00171028,0.00172867,0.00174806,0.00177936,0.00180507,0.00183374,0.00186434,0.0018879,0.00191742,0.00195557,0.0019887,0.00201583,0.00204497,0.00208182,0.00211972,0.00215797,0.00219513,0.00223909,0.00229174,0.0023415,0.00239161,0.0024336,0.00248199,0.00252728,0.00256595,0.00261113,0.00265337,0.00269452,0.00272124,0.00274493,0.00276498,0.00278598,0.00282645,0.00284553,0.00286661,0.00288971,0.00291829,0.00293879,0.00297092,0.00299449,0.00301978,0.00304368,0.00307053,0.00309521,0.00311522,0.00314254,0.00317116,0.00319837,0.00321697,0.00324884,0.00326914,0.00329292,0.00331992,0.00334636,0.00336506,0.0033963,0.00342569,0.0034434,0.00346667,0.00349112,0.00352133,0.00351099,0.00357067,0.00364376,0.00362648,0.00356402,0.00352846,0.00354897,0.00342076,0.00306288,0.00211959,-0.000229865,0.00484245,0.00751129,0.00385352,0.00396183,0.00399545,0.00402033,0.00404151,0.0040583,0.00411272,0.0042103,0.00425199,0.00427235,0.00428692,0.00430479,0.00430775,0.00431201,0.0043244,0.00435144,0.00436539,0.00437536,0.00439414,0.00441342,0.00443768,0.0044664,0.00449588,0.00450904,0.00452747,0.00455434,0.00457693,0.00460898,0.00462938,0.00465565,0.00468011,0.00470661,0.00473161,0.00475459,0.00477713,0.00481065,0.00484039,0.00485386,0.0048823,0.00491201,0.00493398,0.00496072,0.00498363,0.00501078,0.00503558,0.00506084,0.00508604,0.00510895,0.00514359,0.00516123,0.00517615,0.00521358,0.00523741,0.00521304,0.00530843,0.00532091,0.00533538,0.00536584,0.00538136,0.00538401,0.0054599,0.00546936,0.00549388,0.00551642,0.00554921,0.00556479,0.00557915,0.00556501,0.00552396,0.0054731,0.00529603,0.00526112,0.0049891,0.00282752,0.00571878,0.00912844,0.00624326,0.00600022,0.00603209,0.00605333,0.00606207,0.00605906,0.00607467
0.147864,0.147864,0.147864,0.147864,0.147864,0.000568122,0.000551844,0.000536481,0.000520595,0.000507869,0.000491391,0.000480309,0.000467967,0.000455672,0.0004437,0.000436,0.000424952,0.000417507,0.000409257,0.000404113,0.000398594,0.000388993,0.000398543,0.000389472,0.000350732,0.000372828,0.00041771,0.000384916,0.000374113,0.000396074,0.000409655,0.000424321,0.000425259,0.000397078,0.000412476,0.000530973,0.000591735,0.000635991,0.000661249,0.00068277,0.000710443,0.000723137,0.000737289,0.000764394,0.000796229,0.000837057,0.000866921,0.000895844,0.000926703,0.000956532,0.000981526,0.000997323,0.00100195,0.00100385,0.00100556,0.00100714,0.00100937,0.00101141,0.00101324,0.00101623,0.00101946,0.00101915,0.00101611,0.00101083,0.00103576,0.00104237,0.00103636,0.00103816,0.0010418,0.0010436,0.00104734,0.00105151,0.00105585,0.00105759,0.00106207,0.00106539,0.00107063,0.00107354,0.00107889,0.00108229,0.00108831,0.0010916,0.00109641,0.00110146,0.00110792,0.00111329,0.00111734,0.00112339,0.00112901,0.00113463,0.00114237,0.00115038,0.00115306,0.00115494,0.00117116,0.00117687,0.00118266,0.00118827,0.00119919,0.00120736,0.00121246,0.00122003,0.00123172,0.00124272,0.00125155,0.00125571,0.00126833,0.00128775,0.001297,0.00130711,0.00131603,0.0013337,0.0013635,0.00139087,0.00141603,0.0014343,0.00145296,0.00146879,0.0014883,0.00150536,0.0015224,0.00154179,0.00156149,0.00157444,0.00160012,0.0016134,0.00163333,0.0016501,0.0016639,0.00168193,0.00169622,0.00171028,0.00172867,0.00174806,0.00177936,0.00180507,0.00183374,0.00186434,0.0018879,0.00191742,0.00195557,0.0019887,0.00201583,0.00204497,0.00208182,0.00211972,0.00215189,0.00219513,0.00223909,0.00229174,0.00233327,0.00239161,0.0024336,0.00248199,0.00252728,0.00256595,0.00261113,0.00265337,0.00269452,0.00272124,0.00274493,0.00276498,0.00278598,0.00282645,0.00284553,0.00286661,0.00288971,0.00291829,0.00293879,0.00297092,0.00299449,0.00301978,0.00304368,0.00307053,0.00309521,0.00311522,0.00314254,0.00317116,0.00319837,0.00321697,0.00324064,0.00326914,0.00329292,0.00331992,0.00334636,0.00336506,0.0033963,0.00342569,0.0034434,0.00346667,0.00349112,0.00352133,0.00351099,0.00357067,0.00364376,0.00362994,0.00356402,0.00352574,0.00354897,0.00342076,0.00306288,0.00211959,-0.000229865,0.00484245,0.00751129,0.00385352,0.00396183,0.00399545,0.00402033,0.00404151,0.0040583,0.00411272,0.0042103,0.00425199,0.00427235,0.00428692,0.00430479,0.00430775,0.00431201,0.0043244,0.00435144,0.00436539,0.00437536,0.00439414,0.00441342,0.00443768,0.0044664,0.00449588,0.00450904,0.00452747,0.00455434,0.00457693,0.00460898,0.00462938,0.00465565,0.00468011,0.00470661,0.00473161,0.00475459,0.00477713,0.00481065,0.00484039,0.00485386,0.0048823,0.00491201,0.00493398,0.00496072,0.00498363,0.00500775,0.00503558,0.00506084,0.00508345,0.00510895,0.00514359,0.00516123,0.00517615,0.00521358,0.00523741,0.00521304,0.00530843,0.00532091,0.00533538,0.00536123,0.00538136,0.00538401,0.0054599,0.00546936,0.00549388,0.00551642,0.00554921,0.00556479,0.00557915,0.00556501,0.00552396,0.0054731,0.00529603,0.00526112,0.0049891,0.00282752,0.00571878,0.00912844,0.00624326,0.00600022,0.00603209,0.00605333,0.00606207,0.00605906,0.00607467
0.147616,0.147616,0.147616,0.147616,0.147533,0.147533,0.000551844,0.000536481,0.000520595,0.000507869,0.000493701,0.000480309,0.000467967,0.000455672,0.0004437,0.000436,0.000426499,0.000417507,0.000409257,0.000404113,0.000398594,0.000388993,0.000398543,0.000389472,0.000350732,0.000358756,0.00041771,0.000384916,0.000374113,0.000396074,0.000409655,0.000424321,0.000426005,0.000397078,0.000412476,0.000530973,0.000591735,0.000635991,0.000661249,0.00068277,0.000707195,0.000723137,0.000737289,0.000758372,0.000796229,0.000837057,0.000866921,0.000895844,0.000926703,0.000956532,0.000981526,0.000997323,0.00100195,0.00100385,0.00100556,0.00100714,0.00100937,0.00101141,0.00101324,0.00101623,0.00101946,0.00101915,0.00101611,0.00101083,0.00103576,0.00104237,0.00103636,0.00103816,0.0010418,0.0010436,0.00104734,0.00105151,0.00105585,0.00105759,0.00106207,0.00106539,0.00107063,0.00107354,0.00107889,0.00108229,0.00108831,0.0010916,0.00109641,0.00110146,0.00110792,0.00111329,0.00111734,0.00112113,0.00112678,0.00113463,0.00114237,0.00115038,0.00115306,0.00115494,0.00117116,0.00117687,0.00118266,0.00118827,0.00119919,0.00120736,0.00121246,0.00122003,0.00123172,0.00124272,0.00125155,0.00125571,0.00126833,0.00128775,0.00129537,0.00130711,0.00131603,0.0013337,0.0013635,0.00139087,0.00141603,0.0014314,0.00144982,0.00146879,0.0014883,0.00150536,0.0015224,0.00154179,0.00156149,0.00157444,0.00160012,0.0016134,0.0016305,0.0016501,0.0016639,0.00168193,0.00169622,0.00170804,0.00172867,0.00174806,0.00177936,0.00180507,0.00183374,0.00186434,0.0018879,0.00191742,0.00195557,0.0019887,0.00201583,0.00204497,0.00208182,0.00211972,0.00215189,0.00219513,0.00223909,0.00229174,0.00233327,0.00239161,0.0024336,0.00248199,0.00252728,0.00256595,0.0026036,0.00265337,0.00269452,0.00272124,0.00274493,0.00276498,0.00278598,0.00282645,0.00284553,0.00286661,0.00288971,0.00291829,0.00293879,0.00297092,0.00299449,0.00301978,0.00304368,0.00307053,0.00309521,0.00311522,0.00314254,0.00317116,0.00319837,0.00321697,0.00324064,0.00326914,0.00329292,0.00331992,0.00334636,0.00336506,0.0033963,0.00342569,0.0034434,0.00346667,0.00349112,0.00352133,0.00351099,0.00357067,0.00364376,0.00362994,0.00356402,0.00352574,0.00354897,0.00342076,0.00306288,0.00211959,-0.000229865,0.0032133,0.00751129,0.00385352,0.00396183,0.00399545,0.00402033,0.00404151,0.0040583,0.00411272,0.00419939,0.00424927,0.00427235,0.00428692,0.00430479,0.00430775,0.00431201,0.0043244,0.00435144,0.00436539,0.00437536,0.00439414,0.00441342,0.00443768,0.0044664,0.00449588,0.0045055,0.00452747,0.00455434,0.00457693,0.00460898,0.00462356,0.00465565,0.00468011,0.00470661,0.00473161,0.00475459,0.00477713,0.00481065,0.00484039,0.00485386,0.0048823,0.00490003,0.00493398,0.00496072,0.00498363,0.00500775,0.00503558,0.00506084,0.00508345,0.00510895,0.00514359,0.00516123,0.00517385,0.00520473,0.00523741,0.00521304,0.00530843,0.00532091,0.00533538,0.00536123,0.00538136,0.00538401,0.0054599,0.00546936,0.00549388,0.00551642,0.00554921,0.00556479,0.00557915,0.00556501,0.00552396,0.0054731,0.00529603,0.00526112,0.0049891,0.00282752,0.00571878,0.00912844,0.00624326,0.00600022,0.00603209,0.00605333,0.00606207,0.00605882,0.00607467
0.147294,0.147294,0.147294,0.147294,0.147294,0.147294,0.147294,0.000536481,0.000520595,0.000507869,0.000493701,0.000480309,0.000467967,0.000455672,0.0004437,0.000436,0.000426499,0.000417507,0.000409257,0.000404113,0.000398594,0.000388993,0.000398543,0.000396653,0.000350732,0.000353764,0.00041771,0.000384916,0.000374113,0.000396074,0.000409655,0.000423292,0.000426005,0.000397078,0.000412476,0.000530973,0.000591735,0.000628313,0.000661249,0.00068277,0.000707195,0.000723137,0.000737289,0.000758372,0.000796229,0.000837057,0.000866921,0.000895844,0.000926703,0.000956532,0.000978187,0.000995905,0.00100195,0.00100385,0.00100556,0.00100714,0.00100937,0.00101141,0.00101324,0.00101623,0.00101946,0.00101915,0.00101611,0.00101083,0.00103576,0.00104237,0.00103636,0.00103816,0.0010418,0.0010436,0.00104734,0.00105151,0.00105408,0.00105759,0.00106207,0.00106539,0.00107063,0.00107354,0.00107889,0.00108229,0.00108831,0.0010916,0.00109641,0.00110146,0.00110792,0.00111329,0.00111734,0.00112113,0.00112678,0.00113463,0.00114237,0.00115038,0.00115306,0.00115494,0.00117116,0.00117687,0.00118041,0.00118827,0.00119919,0.00120736,0.00121246,0.00122003,0.00123172,0.00124272,0.00125041,0.00125571,0.00126833,0.00128775,0.00129537,0.00130318,0.00131603,0.00132623,0.00135172,0.00138577,0.00141603,0.0014314,0.00144982,0.00146879,0.0014883,0.00150536,0.0015224,0.00154179,0.00156149,0.00157444,0.00160012,0.0016134,0.0016305,0.0016501,0.0016639,0.00168193,0.00169622,0.00170804,0.00172867,0.00174806,0.00177936,0.00180507,0.00183374,0.00186434,0.0018879,0.00191742,0.00195557,0.00197304,0.00201583,0.00204497,0.00208182,0.00211972,0.00215189,0.00219513,0.00223909,0.00229174,0.00233327,0.00239161,0.0024336,0.00248199,0.00252024,0.00255973,0.0026036,0.00265337,0.00269452,0.00272124,0.00274493,0.00276498,0.00278598,0.00282645,0.00284553,0.00286661,0.00288971,0.00291829,0.00293879,0.00297092,0.00299449,0.00301978,0.00304368,0.00307053,0.00309521,0.00311522,0.00314254,0.00317116,0.00319098,0.00321697,0.00324064,0.00326914,0.00329292,0.00331992,0.00334636,0.00336506,0.0033963,0.00342569,0.0034434,0.00346667,0.00349112,0.00352133,0.00351099,0.00357067,0.00364376,0.00362994,0.00357457,0.00352574,0.00354897,0.00344809,0.00321658,0.00211959,-0.000229865,0.0032133,0.00751129,0.00385352,0.00396183,0.00399545,0.00402033,0.00404151,0.0040583,0.00411272,0.00419939,0.00424927,0.00427235,0.00428692,0.00430479,0.00430775,0.00430805,0.0043244,0.00434345,0.00436539,0.00437536,0.00438897,0.00441342,0.00443768,0.0044664,0.00449588,0.0045055,0.00452747,0.00455434,0.00457693,0.00460898,0.00462356,0.00465565,0.00468011,0.00470661,0.00473161,0.00475459,0.00477713,0.00481065,0.00484039,0.00485111,0.0048823,0.00490003,0.00493398,0.00496072,0.00498363,0.00500775,0.00503558,0.00506084,0.00508345,0.00510895,0.00514012,0.00516123,0.00517385,0.00520473,0.00523741,0.00521304,0.00530843,0.00532091,0.00533538,0.00536123,0.00538136,0.00538401,0.0054599,0.00546936,0.00549388,0.00551642,0.00554921,0.0055623,0.00557915,0.00556501,0.00552396,0.0054731,0.00529603,0.00526112,0.0049891,0.00420843,0.00571878,0.00912844,0.00624326,0.00600022,0.00603209,0.00605333,0.00606207,0.00605882,0.00607467
0.147107,0.147107,0.147107,0.147107,0.147107,0.147107,0.147107,0.147107,0.000520595,0.000507869,0.000493701,0.000480309,0.000467967,0.000455672,0.0004437,0.000436,0.000426499,0.000417507,0.00041058,0.000404113,0.000403516,0.000388993,0.000398543,0.000396653,0.000350732,0.000353764,0.00041771,0.000384916,0.000374113,0.000396074,0.000409655,0.000423292,0.000426005,0.000397078,0.000412476,0.000530973,0.000591735,0.000628313,0.000661249,0.00068277,0.000707195,0.000723137,0.000737289,0.000758372,0.000796229,0.000837057,0.000866921,0.000895844,0.000926703,0.000956532,0.000978187,0.000995905,0.00100195,0.00100385,0.00100556,0.00100714,0.00100937,0.00101141,0.00101324,0.00101623,0.00101946,0.00101992,0.00101611,0.00101083,0.00103576,0.00104237,0.00103636,0.00103816,0.0010418,0.0010436,0.00104734,0.00105151,0.00105408,0.00105759,0.00106207,0.00106539,0.00107063,0.00107354,0.00107806,0.00108229,0.00108831,0.0010916,0.00109641,0.00110146,0.00110792,0.00111252,0.00111734,0.00112113,0.00112678,0.00113463,0.00114237,0.00114777,0.00115306,0.00115494,0.00116925,0.00117687,0.00118041,0.00118827,0.00119919,0.00120736,0.00121246,0.00122003,0.00123172,0.00124272,0.00125041,0.00125571,0.00126833,0.00128775,0.00129537,0.00130318,0.00131603,0.00132623,0.00135172,0.00138577,0.00141603,0.0014314,0.00144982,0.00146879,0.0014883,0.00150536,0.0015224,0.00154179,0.00156149,0.00157444,0.00160012,0.0016134,0.0016305,0.0016501,0.0016639,0.00168193,0.00169622,0.00170804,0.00172867,0.00174806,0.00177936,0.00180507,0.00183374,0.00186434,0.0018879,0.00191742,0.00194359,0.00197304,0.00201583,0.00204497,0.00208182,0.00210702,0.00215189,0.00219513,0.00223909,0.00229174,0.00233327,0.00238304,0.00242561,0.00248199,0.00252024,0.00255973,0.0026036,0.00265337,0.00269452,0.00272124,0.00274493,0.00276092,0.00278598,0.00282645,0.00284553,0.00286661,0.00288971,0.00291829,0.00293879,0.00297092,0.00299449,0.00301978,0.00304368,0.00307053,0.00309521,0.00311522,0.00314254,0.00317116,0.00319098,0.00321697,0.00324064,0.00326914,0.00329292,0.00331992,0.00334636,0.00336506,0.0033963,0.00342569,0.0034434,0.00346667,0.00349112,0.00352133,0.00351099,0.00357067,0.00364376,0.00362994,0.00357457,0.00352574,0.00354897,0.00344809,0.00329343,0.00211959,-0.000229865,0.0032133,0.00751129,0.00385352,0.00396183,0.00398635,0.00401668,0.00404151,0.0040583,0.00411272,0.00419939,0.00424927,0.00427235,0.00428692,0.00430479,0.00430775,0.00430805,0.0043244,0.00434345,0.00436539,0.00437536,0.00438897,0.00441342,0.00443768,0.0044664,0.00449588,0.0045055,0.00452747,0.00455434,0.00457693,0.00459994,0.00462356,0.00465565,0.00468011,0.00470661,0.00473161,0.00475459,0.00477713,0.00481065,0.00484039,0.00485111,0.0048823,0.00490003,0.00493068,0.00496072,0.00498363,0.00500775,0.00503558,0.00506084,0.00508345,0.00510895,0.00514012,0.00516123,0.00517385,0.00520473,0.00523741,0.00521304,0.00530843,0.00532091,0.00533538,0.00536123,0.00538136,0.00538401,0.0054599,0.00546936,0.00549388,0.00551642,0.00554921,0.0055623,0.00557915,0.00556501,0.00552396,0.0054731,0.00529603,0.00526112,0.0049891,0.00420843,0.00571878,0.00912844,0.00624326,0.00600022,0.00603209,0.00605333,0.00606207,0.00605882,0.00607467
0.147076,0.147076,0.147076,0.147076,0.147076,0.14705,0.14705,0.14705,0.14705,0.000507869,0.000493701,0.000480309,0.000467967,0.000455672,0.0004437,0.000436,0.000426499,0.000417507,0.00041058,0.000404113,0.000403516,0.000388993,0.000394822,0.000396653,0.000350732,0.000353764,0.000423291,0.000394586,0.000374113,0.000396074,0.000409655,0.000423292,0.000426005,0.000397078,0.000412476,0.000530973,0.000591735,0.000628313,0.000661249,0.00068277,0.000707195,0.000723137,0.000737289,0.000758372,0.000796229,0.000837057,0.000861292,0.000895844,0.000926703,0.000956532,0.000978187,0.000995905,0.00100195,0.00100385,0.00100556,0.00100714,0.00100937,0.00101141,0.00101324,0.00101623,0.00101946,0.00101992,0.00101611,0.00101083,0.00103576,0.00104237,0.00103636,0.00103816,0.0010418,0.0010436,0.00104734,0.00105151,0.00105408,0.00105759,0.00106207,0.00106539,0.00107063,0.00107354,0.00107806,0.00108229,0.0010875,0.0010916,0.00109641,0.00110146,0.00110792,0.00111252,0.00111559,0.00112113,0.00112678,0.00113463,0.00114237,0.00114777,0.00115306,0.00115494,0.00116925,0.00117687,0.00118041,0.00118827,0.00119919,0.00120736,0.00121246,0.00122003,0.00123172,0.00124272,0.00125041,0.00125571,0.00126833,0.00128775,0.00129537,0.00130318,0.00131603,0.00132623,0.00135172,0.00138577,0.00141603,0.0014314,0.00144982,0.00146561,0.0014883,0.00150536,0.0015224,0.00154179,0.00156149,0.00157444,0.00160012,0.0016134,0.0016305,0.0016501,0.0016639,0.00168193,0.00169622,0.00170804,0.00172867,0.00174806,0.00177936,0.00180507,0.00182883,0.00186434,0.0018879,0.00191742,0.00194359,0.00197304,0.00201583,0.00204497,0.00208182,0.00210702,0.00215189,0.00219513,0.00223909,0.00229174,0.00233327,0.00238304,0.00242561,0.00248199,0.00252024,0.00255973,0.0026036,0.00265337,0.00269452,0.00272124,0.00274493,0.00276092,0.00278598,0.00282645,0.00284553,0.00286661,0.00288971,0.00291829,0.00293879,0.00297092,0.00299449,0.00301978,0.00304368,0.00307053,0.00309521,0.00311522,0.00314254,0.00317116,0.00319098,0.00321697,0.00324064,0.00326914,0.00329292,0.00331992,0.00334636,0.00336506,0.0033963,0.00342569,0.0034434,0.00346667,0.00349112,0.00352133,0.00351099,0.00357067,0.00364376,0.00363341,0.00357457,0.00352574,0.00354897,0.00344809,0.00329343,0.00211959,-0.000229865,0.00158414,0.00751129,0.00385352,0.00396183,0.00398635,0.00401668,0.00403889,0.0040583,0.00411272,0.00419939,0.00424927,0.00427235,0.00428692,0.00430479,0.00430775,0.00430805,0.0043244,0.00434345,0.00436539,0.00437536,0.00438897,0.00441342,0.00443768,0.0044664,0.00449588,0.0045055,0.00452747,0.00455434,0.00457693,0.00459994,0.00462356,0.00464864,0.00468011,0.00470661,0.00473161,0.00475459,0.00477713,0.00481065,0.00484039,0.00485111,0.0048823,0.00490003,0.00493068,0.00496072,0.00498363,0.00500775,0.00503267,0.00506084,0.00508345,0.00510895,0.00514012,0.00516123,0.00517385,0.00520473,0.00523741,0.00521304,0.00530843,0.00532091,0.00533538,0.00536123,0.00538136,0.00538401,0.0054599,0.00546936,0.00549388,0.00551642,0.00554921,0.0055623,0.00557915,0.00556501,0.00552396,0.0054988,0.00529603,0.00526112,0.0049891,0.00420843,0.00571878,0.00912844,0.00624326,0.00600022,0.00603209,0.00605333,0.00606207,0.00605882,0.00607467
0.146959,0.146959,0.146959,0.146959,0.146959,0.146959,0.146959,0.146959,0.146959,0.146959,0.000493701,0.000480309,0.000467967,0.000455672,0.0004437,0.000436,0.000426499,0.000417507,0.00041058,0.000404113,0.000403516,0.000390369,0.000394822,0.000396653,0.000350732,0.000353764,0.000423291,0.000394586,0.000374113,0.000396074,0.000409655,0.000423292,0.000426005,0.000397078,0.000412476,0.000530973,0.000591735,0.000628313,0.000661249,0.00068277,0.000707195,0.000723137,0.000737289,0.000758372,0.000796229,0.000837057,0.000861292,0.000895844,0.000926703,0.000946736,0.00096972,0.000995905,0.00100195,0.00100385,0.00100556,0.00100714,0.00100937,0.00101104,0.00101324,0.00101623,0.00101946,0.00101992,0.00101611,0.00101083,0.00103576,0.00104464,0.00103636,0.00103816,0.0010418,0.0010436,0.00104734,0.00105151,0.00105408,0.00105759,0.00106207,0.00106539,0.00107063,0.00107354,0.00107806,0.00108229,0.0010875,0.0010916,0.00109641,0.00110146,0.00110792,0.00111252,0.00111559,0.00112113,0.00112678,0.00113463,0.00114237,0.00114777,0.00115306,0.00115494,0.00116925,0.00117687,0.00118041,0.00118827,0.00119919,0.00120736,0.00121246,0.00122003,0.00123172,0.00124272,0.00125041,0.00125571,0.00125797,0.00128775,0.00129537,0.00130318,0.00131603,0.00132623,0.00135172,0.00138577,0.00141603,0.0014314,0.00144982,0.00146561,0.0014883,0.00149843,0.0015224,0.00154179,0.00156149,0.00157444,0.00159687,0.0016134,0.0016305,0.0016501,0.0016611,0.00168193,0.00169622,0.00170804,0.00172867,0.00174806,0.00177936,0.00180507,0.00182883,0.00186434,0.0018879,0.00191742,0.00194359,0.00197304,0.00201583,0.00204497,0.00208182,0.00210702,0.00215189,0.00219513,0.00223909,0.00228268,0.00233327,0.00238304,0.00242561,0.00248199,0.00252024,0.00255973,0.0026036,0.00265337,0.00269452,0.00272124,0.00274493,0.00276092,0.00278598,0.00281143,0.00284553,0.00286661,0.00288971,0.00291829,0.00293879,0.00297092,0.00299449,0.00301978,0.00304368,0.00305896,0.00309521,0.00311522,0.00314254,0.00316292,0.00319098,0.00321697,0.00324064,0.00326914,0.00329292,0.00331992,0.00333909,0.00336506,0.0033963,0.00342569,0.0034434,0.00346667,0.00349112,0.00352133,0.00351099,0.00357067,0.00364376,0.00363341,0.00357457,0.00352574,0.00354897,0.00347074,0.00329343,0.00211959,-0.000229865,0.00158414,0.00751129,0.00385352,0.00396183,0.00398635,0.00401668,0.00403889,0.0040583,0.00411272,0.00419939,0.00424927,0.00427235,0.00428452,0.00430479,0.00430775,0.00430805,0.0043244,0.00434345,0.00436539,0.00437536,0.00438897,0.00441342,0.00443768,0.0044664,0.00449588,0.0045055,0.00452747,0.00455434,0.00457693,0.00459994,0.00462356,0.00464864,0.00468011,0.00470661,0.00473161,0.00475459,0.00477713,0.00481065,0.00484039,0.00485111,0.0048823,0.00490003,0.00493068,0.00496072,0.00498363,0.00500775,0.00503267,0.00506084,0.00508345,0.00510553,0.00514012,0.00516123,0.00517385,0.00520473,0.00523741,0.00521304,0.00530843,0.00532091,0.00533538,0.00536123,0.00538136,0.00538401,0.00547197,0.00546454,0.0054849,0.00551642,0.00554921,0.0055623,0.00557915,0.00556501,0.00552396,0.0054988,0.00529603,0.00526112,0.00523807,0.00420843,0.00311177,0.00912844,0.00624326,0.00600022,0.00603209,0.00605333,0.00606207,0.00605882,0.00607467
0.146945,0.146945,0.146945,0.146945,0.146945,0.146945,0.146945,0.146945,0.146945,0.146945,0.146945,0.000480309,0.000467967,0.000455672,0.0004437,0.000436,0.000428046,0.000417507,0.00041058,0.000404113,0.000403516,0.000390369,0.000394822,0.000396653,0.000350732,0.000353764,0.000423291,0.000394586,0.000374113,0.000396074,0.000409655,0.000423292,0.000426005,0.000397078,0.000412476,0.000530973,0.000591735,0.000628313,0.000661249,0.00068277,0.000707195,0.000723137,0.000737289,0.000747613,0.000796229,0.000837057,0.000861292,0.000895844,0.000921778,0.000946736,0.00096972,0.000995905,0.00100195,0.00100385,0.00100556,0.00100714,0.00100937,0.00101104,0.00101324,0.00101623,0.00101946,0.00101992,0.00101611,0.00101083,0.00103576,0.00104464,0.00103636,0.00103816,0.00104137,0.0010436,0.00104734,0.00105151,0.00105408,0.00105759,0.00106207,0.00106539,0.00107063,0.00107354,0.00107806,0.00108229,0.0010875,0.0010916,0.00109641,0.00110146,0.00110689,0.00111252,0.00111559,0.00112113,0.00112678,0.00113463,0.00114237,0.00114777,0.00115306,0.00115494,0.00116925,0.00117687,0.00118041,0.00118827,0.00119765,0.00120607,0.00121246,0.00122003,0.00123172,0.00124272,0.00125041,0.00125571,0.00125797,0.00128775,0.00129537,0.00130318,0.00131603,0.00132623,0.00135172,0.00138577,0.00141603,0.0014314,0.00144982,0.00146561,0.0014883,0.00149843,0.0015224,0.00154179,0.00156149,0.00157444,0.00159687,0.0016134,0.00162768,0.0016501,0.0016611,0.00168193,0.00169622,0.00170804,0.00172867,0.00174806,0.00177936,0.00180046,0.00182883,0.00186434,0.0018879,0.00191742,0.00194359,0.00197304,0.0020103,0.00204497,0.00208182,0.00210702,0.00215189,0.00219513,0.00223909,0.00228268,0.00233327,0.00238304,0.00242561,0.00248199,0.00252024,0.00255973,0.0026036,0.00265337,0.00269452,0.00271301,0.00274493,0.00276092,0.00278598,0.00281143,0.00284553,0.00286661,0.00288971,0.00291829,0.00293879,0.00297092,0.00299449,0.00301978,0.00304368,0.00305896,0.00309521,0.00311522,0.00314254,0.00316292,0.00319098,0.00321697,0.00324064,0.00326914,0.00329292,0.00331992,0.00333909,0.00336506,0.0033963,0.00342569,0.0034434,0.00346667,0.00349112,0.00352133,0.00351099,0.00357067,0.00364376,0.00363341,0.00357457,0.00352574,0.00354897,0.00347074,0.00329343,0.00211959,-0.000229865,-0.000637198,0.00751129,0.00385352,0.00396097,0.00398635,0.00401668,0.00403889,0.0040583,0.00411272,0.00419939,0.00424927,0.00427235,0.00428452,0.00430225,0.00430775,0.00430805,0.0043244,0.00434345,0.00436539,0.00437536,0.00438897,0.00441342,0.00443768,0.0044664,0.00449588,0.0045055,0.00452747,0.00454764,0.00457693,0.00459994,0.00462356,0.00464864,0.00468011,0.00470661,0.00473161,0.00475459,0.00477713,0.00480627,0.00484039,0.00485111,0.0048823,0.00490003,0.00493068,0.00496072,0.00498363,0.00500775,0.00503267,0.00506084,0.00508073,0.00510553,0.00512972,0.00516123,0.00517385,0.00520473,0.00523741,0.00521304,0.00530843,0.00532091,0.00533538,0.00536123,0.00538136,0.00538401,0.00547197,0.00546454,0.0054849,0.00551642,0.00554921,0.0055623,0.00557915,0.00556501,0.00552396,0.0054988,0.00534967,0.00524194,0.00523807,0.00420843,0.00311177,0.00912844,0.00624326,0.00600022,0.00603209,0.00605333,0.00606722,0.00605882,0.00607467
0.146894,0.146894,0.146894,0.146894,0.146894,0.146894,0.146894,0.146894,0.146894,0.146894,0.146894,0.146894,0.000467967,0.000455672,0.0004437,0.000436,0.000428046,0.000417507,0.00041058,0.000404113,0.000403516,0.000390369,0.000394822,0.000396653,0.000350732,0.000353764,0.000423291,0.000394586,0.000374113,0.000396074,0.000409655,0.000420834,0.000426005,0.000397078,0.000412476,0.000530973,0.000591735,0.000628313,0.000661249,0.00068277,0.000707195,0.000723137,0.000737289,0.000747613,0.000796229,0.000837057,0.000861292,0.000895844,0.000921778,0.000946736,0.00096972,0.000995905,0.0010016,0.00100303,0.00100556,0.00100714,0.00100937,0.00101104,0.00101324,0.00101623,0.00101946,0.00101992,0.00101611,0.00101083,0.00103576,0.00104464,0.00103636,0.00103816,0.00104137,0.0010436,0.00104734,0.00105151,0.00105408,0.00105759,0.00106207,0.00106539,0.00106925,0.00107354,0.00107806,0.00108229,0.00108587,0.0010916,0.00109641,0.00110059,0.00110689,0.00111252,0.00111559,0.00112113,0.00112678,0.0011335,0.00114237,0.00114777,0.00115306,0.00115494,0.00116396,0.00117687,0.00118041,0.00118827,0.00119765,0.00120607,0.00121246,0.00122003,0.00123172,0.00124272,0.00125041,0.00125571,0.00125797,0.00128775,0.00129395,0.00130318,0.00131603,0.00132623,0.00135172,0.00138067,0.00141603,0.0014314,0.00144982,0.00146561,0.0014883,0.00149843,0.0015224,0.00154179,0.00156149,0.00157444,0.00159687,0.0016134,0.00162768,0.00164737,0.0016611,0.00168193,0.00169622,0.00170804,0.00172867,0.00174806,0.00177936,0.00180046,0.00182883,0.00186434,0.0018879,0.0019124,0.00194359,0.00197304,0.0020103,0.00204497,0.00208182,0.00210702,0.00215189,0.00219513,0.00223909,0.00228268,0.00233327,0.00238304,0.00242561,0.00248199,0.00252024,0.00255973,0.0026036,0.00265337,0.00269452,0.00271301,0.00274493,0.00275693,0.00278598,0.00281143,0.00284553,0.00286661,0.00288971,0.00291829,0.00293879,0.00296287,0.00299449,0.00301978,0.00304368,0.00305896,0.00308708,0.00311522,0.00314254,0.00316292,0.00319098,0.00321697,0.00324064,0.00326914,0.00329292,0.00331992,0.00333909,0.00336506,0.0033963,0.00342569,0.0034434,0.00346667,0.00349112,0.00352133,0.00351099,0.00357067,0.00364297,0.00363341,0.00357457,0.00353686,0.00354897,0.00347074,0.00329343,0.00211959,-0.000229865,-0.000637198,0.00751129,0.00385352,0.00396097,0.00397608,0.00401668,0.00403889,0.0040583,0.00411272,0.00419939,0.00424927,0.00427235,0.00428452,0.00430019,0.00430775,0.00430805,0.0043244,0.00434345,0.00436539,0.00437536,0.00438897,0.00441342,0.00443768,0.0044618,0.00449588,0.0045055,0.00452747,0.00454764,0.00457693,0.00459994,0.00462356,0.00464864,0.00468011,0.00469795,0.00473161,0.00475459,0.00477713,0.00480627,0.00484039,0.00485111,0.0048823,0.00490003,0.00493068,0.0049581,0.00498363,0.00500775,0.00503267,0.00506084,0.00508073,0.00510553,0.00512972,0.00516123,0.00517385,0.00520473,0.00523932,0.00521304,0.00530843,0.00531307,0.00533538,0.00536123,0.00538136,0.00532867,0.00547197,0.00546454,0.0054849,0.00551642,0.00554921,0.0055623,0.00557624,0.00556501,0.00552396,0.0054988,0.00534967,0.00524194,0.00523807,0.00420843,0.00311177,0.00912844,0.00624326,0.00600022,0.00603209,0.00605333,0.00606722,0.00605882,0.00607467
0.146837,0.146837,0.146837,0.146837,0.146837,0.146837,0.146837,0.146837,0.146837,0.146837,0.146837,0.146837,0.146837,0.000455672,0.0004437,0.000437625,0.000428046,0.000418986,0.00041058,0.000404113,0.000403516,0.000390369,0.000394822,0.000396653,0.000350732,0.000353764,0.000423291,0.000394586,0.000374113,0.000396074,0.000409655,0.000420834,0.000426005,0.000397078,0.000412476,0.000530973,0.000591735,0.000628313,0.000652513,0.00068277,0.000707195,0.000723137,0.000731252,0.000747613,0.000796229,0.000837057,0.000861292,0.000895844,0.000921778,0.000946736,0.00096972,0.000991544,0.0010016,0.00100303,0.00100556,0.00100714,0.00100937,0.00101036,0.00101324,0.00101623,0.00101946,0.00101992,0.00101611,0.00101083,0.00103576,0.00104464,0.00103636,0.00103816,0.00104137,0.0010436,0.00104734,0.00105151,0.00105408,0.00105759,0.00106207,0.00106539,0.00106925,0.00107354,0.00107806,0.00108229,0.00108587,0.0010916,0.00109641,0.00110059,0.00110689,0.00111252,0.00111559,0.00112113,0.00112678,0.0011335,0.00114237,0.00114777,0.00115306,0.00115494,0.00116396,0.00117687,0.00118041,0.00118827,0.00119765,0.00120607,0.00121246,0.00122003,0.00123172,0.00124272,0.00125041,0.00125571,0.00125797,0.00127832,0.00129395,0.00130318,0.00131603,0.00132623,0.00135172,0.00138067,0.00141603,0.0014314,0.00144669,0.00146561,0.0014883,0.00149843,0.0015224,0.00154179,0.00156149,0.00157444,0.00159687,0.0016134,0.00162768,0.00164737,0.0016611,0.00168193,0.00169622,0.00170804,0.00172502,0.00174806,0.00177936,0.00180046,0.00182883,0.00186434,0.0018879,0.0019124,0.00194359,0.00197304,0.0020103,0.00204497,0.00207562,0.00210702,0.00215189,0.00218875,0.00223909,0.00228268,0.00233327,0.00237466,0.00242561,0.00248199,0.00252024,0.00255973,0.0026036,0.00265337,0.00269452,0.00271301,0.00274493,0.00275693,0.00278598,0.00281143,0.00284553,0.00286661,0.00288971,0.00291829,0.00293879,0.00296287,0.00299449,0.00301978,0.00304368,0.00305896,0.00308708,0.00311522,0.00314254,0.00316292,0.00319098,0.00321697,0.00324064,0.00326914,0.00329292,0.00331992,0.00333909,0.00336506,0.0033963,0.00342569,0.0034434,0.00346667,0.00349112,0.00352133,0.00351099,0.00357067,0.00364297,0.00363341,0.00357457,0.00353686,0.00354897,0.00347074,0.00329343,0.00211959,-0.000229865,-0.000637198,0.00751129,0.00385352,0.00396011,0.00397608,0.00401668,0.00403889,0.0040583,0.00411272,0.00419939,0.00424927,0.00427235,0.00428452,0.00430019,0.00430775,0.00430805,0.0043244,0.00434345,0.00436539,0.00437536,0.00438897,0.00441342,0.00443768,0.0044618,0.00449588,0.0045055,0.00452113,0.00454764,0.00457693,0.00459994,0.00462356,0.00464864,0.00468011,0.00469795,0.00473161,0.00475459,0.00477713,0.00480627,0.00483408,0.00485111,0.0048823,0.00490003,0.00493068,0.0049581,0.00498363,0.00500775,0.00503267,0.00506084,0.00508073,0.00510553,0.00512972,0.00516123,0.0051732,0.00520473,0.00523932,0.00521304,0.00530843,0.00531307,0.00533538,0.00536123,0.00538772,0.00532867,0.00547197,0.00546454,0.0054849,0.00551642,0.00554921,0.0055623,0.00557624,0.00556501,0.00552396,0.0054988,0.00534967,0.00524194,0.00523807,0.00420843,0.00311177,0.00912844,0.00624326,0.00600022,0.00603209,0.00605333,0.00606722,0.00605882,0.00607467
0.146817,0.146817,0.146817,0.146817,0.146817,0.146817,0.146817,0.146817,0.146817,0.146817,0.146817,0.146817,0.146817,0.146817,0.0004437,0.000437625,0.000428046,0.000418986,0.00041058,0.000404113,0.000403516,0.000390369,0.000394822,0.000396653,0.000350732,0.000353764,0.000423291,0.000394586,0.000374113,0.000396074,0.000409655,0.000420834,0.000426005,0.000397078,0.000412476,0.000530973,0.000591735,0.000628313,0.000652513,0.00068277,0.000707195,0.000723137,0.000731252,0.000747613,0.000796229,0.000837057,0.000861292,0.000895844,0.000921778,0.000946736,0.00096972,0.000991544,0.0010016,0.00100303,0.00100556,0.00100714,0.00100937,0.00101036,0.00101324,0.00101623,0.00101946,0.00101992,0.00101611,0.00101077,0.00103576,0.00104464,0.00103636,0.00103816,0.00104137,0.0010436,0.00104734,0.00105151,0.00105408,0.00105759,0.00106207,0.00106539,0.00106925,0.00107354,0.00107806,0.00108229,0.00108587,0.0010916,0.00109641,0.00110059,0.00110689,0.00111252,0.00111559,0.00112113,0.00112678,0.0011335,0.00114237,0.00114777,0.00115306,0.00115353,0.00116396,0.00117687,0.00118041,0.00118827,0.00119765,0.00120607,0.00121246,0.00122003,0.00123172,0.00124272,0.00125041,0.00125571,0.00125797,0.00127832,0.00129395,0.00130318,0.00131404,0.00132623,0.00135172,0.00138067,0.00141255,0.0014314,0.00144669,0.00146561,0.00148492,0.00149843,0.0015224,0.00154179,0.00156149,0.00157444,0.00159687,0.0016134,0.00162768,0.00164737,0.0016611,0.00168193,0.00169622,0.00170804,0.00172502,0.00174806,0.00177936,0.00180046,0.00182883,0.00186434,0.0018879,0.0019124,0.00194359,0.00197304,0.0020103,0.00204497,0.00207562,0.00210702,0.00215189,0.00218875,0.00223909,0.00228268,0.00232508,0.00237466,0.00242561,0.00248199,0.00252024,0.00255973,0.0026036,0.00265337,0.00269452,0.00271301,0.00274493,0.00275693,0.00278598,0.00281143,0.00284553,0.00286661,0.00288971,0.00291829,0.00293879,0.00296287,0.00299449,0.00301978,0.00304368,0.00305896,0.00308708,0.00311522,0.00314254,0.00316292,0.00319098,0.00321697,0.00324064,0.00326914,0.00329292,0.00331992,0.00333909,0.00336506,0.0033963,0.00342569,0.0034434,0.00346667,0.00349112,0.00352133,0.00351099,0.00357067,0.00364297,0.00363341,0.00357457,0.00353686,0.00354897,0.00347074,0.00329343,0.00211959,-0.000229865,-0.000637198,0.00751129,0.00385352,0.00396011,0.00397608,0.00401668,0.00403889,0.0040583,0.00411272,0.00419939,0.00424654,0.00427235,0.00428452,0.00429813,0.00430775,0.00430805,0.0043244,0.00434345,0.00436148,0.00437536,0.00438897,0.00441342,0.00443768,0.0044618,0.00449588,0.0045055,0.00452113,0.00454764,0.00457693,0.00459994,0.00462356,0.00464864,0.00468011,0.00469795,0.00473161,0.00475459,0.00477713,0.00480627,0.00483408,0.00485111,0.0048823,0.00490003,0.00493068,0.0049581,0.00498363,0.00500775,0.00503267,0.00505507,0.00508073,0.00510553,0.00512972,0.00516123,0.0051732,0.00520473,0.00523932,0.00521304,0.00530843,0.00531307,0.00533538,0.00536123,0.00538772,0.00532867,0.00547197,0.00546454,0.0054849,0.00551642,0.00554478,0.0055623,0.00557624,0.00556501,0.00552396,0.0054988,0.00534967,0.00524194,0.00523807,0.00420843,0.00311177,0.00912844,0.00624326,0.00600022,0.00603209,0.00605333,0.00606979,0.00605882,0.00607467
0.146776,0.146776,0.146776,0.146776,0.146776,0.146776,0.146776,0.146776,0.146776,0.146776,0.146776,0.146776,0.146776,0.146776,0.146776,0.000437625,0.000428046,0.000418986,0.00041058,0.000404113,0.000403516,0.000390369,0.000394822,0.000396653,0.000350732,0.000353764,0.000423291,0.000394586,0.000374113,0.000396074,0.000409655,0.000420834,0.000426005,0.000397078,0.000412476,0.000530973,0.000591735,0.000628313,0.000652513,0.00068277,0.000695144,0.000723137,0.000731252,0.000747613,0.000796229,0.000823337,0.000861292,0.000895844,0.000921778,0.000946736,0.00096972,0.000991544,0.0010016,0.00100303,0.00100556,0.00100714,0.00100907,0.00101036,0.00101324,0.00101623,0.00101946,0.00101992,0.00101611,0.00101077,0.00101864,0.00104464,0.00103636,0.00103816,0.00104137,0.0010436,0.00104734,0.00105151,0.00105408,0.00105759,0.00106139,0.00106539,0.00106925,0.00107354,0.00107806,0.00108229,0.00108587,0.0010916,0.00109641,0.00110059,0.00110689,0.00111252,0.00111559,0.00112113,0.00112678,0.0011335,0.00114237,0.00114777,0.00115306,0.00115353,0.00116396,0.00117687,0.00118041,0.00118827,0.00119765,0.00120607,0.00121246,0.00122003,0.00123172,0.00124104,0.00125041,0.00125571,0.00125797,0.00127832,0.00129395,0.00130318,0.00131231,0.00132623,0.00135172,0.00138067,0.00141255,0.0014314,0.00144669,0.00146561,0.00148492,0.00149843,0.0015224,0.00153856,0.00156149,0.00157444,0.00159687,0.0016134,0.00162768,0.00164737,0.0016611,0.00168193,0.00169622,0.0017058,0.00172502,0.00174806,0.00177936,0.00180046,0.00182883,0.00186434,0.0018879,0.0019124,0.00194359,0.00197304,0.0020103,0.00204497,0.00207562,0.00210702,0.00215189,0.00218875,0.00223909,0.00228268,0.00232508,0.00237466,0.00242561,0.00248199,0.00252024,0.00255973,0.0026036,0.00265337,0.00269452,0.00271301,0.00274493,0.00275693,0.00278598,0.00281143,0.00284553,0.00286661,0.00288971,0.00291829,0.00293879,0.00296287,0.00299449,0.00301978,0.00304368,0.00305896,0.00308708,0.00311522,0.00314254,0.00316292,0.00319098,0.00321697,0.00324064,0.00326914,0.00329292,0.00331992,0.00333909,0.00336506,0.0033963,0.00342569,0.0034434,0.00346667,0.00349112,0.00352133,0.00352504,0.00357067,0.00364297,0.00363341,0.00357457,0.00353686,0.00354897,0.00347074,0.00329343,0.00211959,-0.000229865,-0.000637198,0.00751129,0.00385352,0.00396011,0.00397608,0.00401668,0.00403889,0.0040583,0.00411272,0.00419939,0.00424654,0.0042649,0.00428452,0.00429813,0.00430775,0.00430805,0.0043244,0.00434345,0.00436148,0.00437536,0.00438897,0.00441342,0.00443768,0.0044618,0.00449588,0.0045055,0.00452113,0.00454764,0.00457693,0.00459994,0.00462356,0.00464864,0.00467326,0.00469795,0.00473161,0.00475459,0.00477713,0.00480627,0.00483408,0.00485111,0.0048823,0.00490003,0.00493068,0.0049581,0.00497766,0.00500775,0.00503267,0.00505507,0.00508073,0.00510553,0.00512972,0.00516123,0.00517126,0.00520473,0.00523932,0.00521304,0.00530843,0.00530936,0.00533538,0.00536123,0.00538772,0.00532867,0.00547197,0.00546454,0.0054849,0.00551642,0.00554478,0.00555995,0.00557624,0.00556501,0.00553327,0.0054988,0.00534967,0.00524194,0.00523807,0.00420843,0.00311177,0.00912844,0.00624326,0.00600022,0.00603209,0.00605333,0.00606979,0.00605882,0.00607467
0.146712,0.146712,0.146712,0.146712,0.146712,0.146712,0.146712,0.146712,0.146712,0.146712,0.146712,0.146712,0.146712,0.146712,0.146712,0.146712,0.000428046,0.000418986,0.00041058,0.000404113,0.000403516,0.000390369,0.000394822,0.000396653,0.000350732,0.000352586,0.000423291,0.000394586,0.000374113,0.000396074,0.000409655,0.000420834,0.000426005,0.000397078,0.000412476,0.000530973,0.000591735,0.000628313,0.000652513,0.00068277,0.000695144,0.000723137,0.000731252,0.000747613,0.000776438,0.000823337,0.000861292,0.000895844,0.000921778,0.000946736,0.00096972,0.000991544,0.0010016,0.00100303,0.00100556,0.00100714,0.00100907,0.00101036,0.00101324,0.00101623,0.00101946,0.00101992,0.00101611,0.00101077,0.00101864,0.00104464,0.00103636,0.00103816,0.00104137,0.0010436,0.00104734,0.00105151,0.00105408,0.00105759,0.00106139,0.00106539,0.00106925,0.00107354,0.00107806,0.00108229,0.00108587,0.0010916,0.00109485,0.00110059,0.00110689,0.00111252,0.00111559,0.00112113,0.00112678,0.0011335,0.00114237,0.00114777,0.00115306,0.00115353,0.00116396,0.00117687,0.00118041,0.00118827,0.00119765,0.00120607,0.00121246,0.00122003,0.00123172,0.00124104,0.00125041,0.00125571,0.00125797,0.00127832,0.00129395,0.00130318,0.00131231,0.00132623,0.00135172,0.00138067,0.00141255,0.00142849,0.00144669,0.00146561,0.00148165,0.00149843,0.0015224,0.00153856,0.00155816,0.00157444,0.00159365,0.0016134,0.00162768,0.00164737,0.0016611,0.00167874,0.00169622,0.0017058,0.00172502,0.00174806,0.00177936,0.00180046,0.00182883,0.00186434,0.0018879,0.0019124,0.00194359,0.00197304,0.00200477,0.00204497,0.00207562,0.00210702,0.00215189,0.00218875,0.00223909,0.00227361,0.00232508,0.00237466,0.00242561,0.00248199,0.00252024,0.00255973,0.0026036,0.00265337,0.00269452,0.00271301,0.00274493,0.00275693,0.00278598,0.00281143,0.00284553,0.00286661,0.00288971,0.00291829,0.00293879,0.00296287,0.00298243,0.00300719,0.00303602,0.00305896,0.00308708,0.00311522,0.00314254,0.00316292,0.00319098,0.00321697,0.00324064,0.00326103,0.00329292,0.00331992,0.00333909,0.00336506,0.0033963,0.00342569,0.0034434,0.00346667,0.00349112,0.00352133,0.00352504,0.00357067,0.00364297,0.00363341,0.00357457,0.00353686,0.00354897,0.00347074,0.00329343,0.00264151,-0.000229865,-0.000637198,0.00751129,0.00385352,0.00396011,0.00397608,0.00401668,0.00403889,0.0040583,0.00411272,0.00419939,0.00424382,0.0042649,0.00428452,0.00429813,0.00430775,0.00430805,0.0043244,0.00434345,0.00436148,0.00437536,0.00438897,0.00441342,0.00443768,0.0044618,0.00449588,0.0045055,0.00452113,0.00454764,0.00457693,0.00459994,0.00462356,0.00464864,0.00467326,0.00469795,0.00473161,0.00475459,0.00477713,0.00480627,0.00483408,0.00485111,0.0048823,0.00490003,0.00493068,0.0049581,0.00497766,0.00500775,0.00502977,0.00505507,0.00508073,0.00510211,0.00512972,0.00516123,0.00517126,0.00520473,0.00523932,0.00521304,0.00530843,0.00530936,0.00533538,0.00536123,0.00538772,0.00532867,0.00547197,0.00546454,0.0054849,0.00551642,0.00554478,0.00555995,0.00557624,0.00556501,0.00553327,0.0054988,0.00534967,0.00524194,0.00523807,0.00420843,0.00311177,0.00894644,0.00624326,0.00600022,0.00603209,0.00605333,0.00606979,0.00605882,0.00607467
0.146695,0.146695,0.146695,0.146695,0.146695,0.146695,0.146695,0.146695,0.146695,0.146695,0.146695,0.146695,0.146695,0.146695,0.146695,0.146695,0.146695,0.000418986,0.00041058,0.000404113,0.000403516,0.000390369,0.000394822,0.000396653,0.000350732,0.000352586,0.000423291,0.000394586,0.000374113,0.000396074,0.000409655,0.000420834,0.000426005,0.000397078,0.000412476,0.000530973,0.000591735,0.000628313,0.000652513,0.00068277,0.000695144,0.000723137,0.000731252,0.000747613,0.000776438,0.000823337,0.000861292,0.000895844,0.000921778,0.000946736,0.00096972,0.000991544,0.00100016,0.00100303,0.00100496,0.00100714,0.00100907,0.00101036,0.00101324,0.00101623,0.00101946,0.00101992,0.00101611,0.00101077,0.00101864,0.00104464,0.00103636,0.00103694,0.00104026,0.0010436,0.00104663,0.00105151,0.00105408,0.00105759,0.00106139,0.00106539,0.00106925,0.00107354,0.00107806,0.00108229,0.00108587,0.0010916,0.00109485,0.00110059,0.00110465,0.00111252,0.00111559,0.00112113,0.00112678,0.00113237,0.00113953,0.00114777,0.00115259,0.00115353,0.00116396,0.00117687,0.00118041,0.00118827,0.00119765,0.00120607,0.00121246,0.00122003,0.00123172,0.00124104,0.00124926,0.00125571,0.00125797,0.00127832,0.00129395,0.00130318,0.00131231,0.00132623,0.00135172,0.00138067,0.00141255,0.00142849,0.00144669,0.00146561,0.00148165,0.00149843,0.0015224,0.00153856,0.0015515,0.00157444,0.00159365,0.0016134,0.00162768,0.00164737,0.0016611,0.00167874,0.00169622,0.0017058,0.00172502,0.00174806,0.0017753,0.00180046,0.00182883,0.00184883,0.0018879,0.0019124,0.00194359,0.00197304,0.00200477,0.00204497,0.00207562,0.00210702,0.00215189,0.00218875,0.00223909,0.00227361,0.00232508,0.00237466,0.00242561,0.0024738,0.00252024,0.00255973,0.0026036,0.00265337,0.00269452,0.00271301,0.00274493,0.00275693,0.00278598,0.00281143,0.00284553,0.00286661,0.00288971,0.00291829,0.00293879,0.00296287,0.00298243,0.00300719,0.00303602,0.00305896,0.00308708,0.00311522,0.00314254,0.00316292,0.00319098,0.00321697,0.00324064,0.00326103,0.00329292,0.00331992,0.00333909,0.00336506,0.00337907,0.00342569,0.0034434,0.0034594,0.00349112,0.00352133,0.00352504,0.00357067,0.00364297,0.00363341,0.00357457,0.00353686,0.00354897,0.00347074,0.00329343,0.00264151,-0.000229865,-0.000637198,0.00751129,0.00385352,0.00396011,0.00397608,0.00401668,0.00403889,0.0040583,0.00411272,0.00419939,0.00424382,0.0042649,0.00428452,0.00429813,0.00430775,0.00430805,0.0043244,0.00434345,0.00436148,0.00437536,0.00438897,0.00441342,0.00443114,0.0044618,0.00449588,0.0045055,0.00452113,0.00454764,0.00457693,0.00459994,0.00462356,0.00464864,0.00467326,0.00469795,0.00472163,0.00475459,0.00477713,0.00480627,0.00483408,0.00485111,0.00487937,0.00490003,0.00493068,0.0049581,0.00497766,0.00500775,0.00502977,0.00505507,0.00508073,0.00510211,0.00512972,0.00516123,0.00517126,0.00520473,0.00523932,0.00521304,0.00530843,0.00530936,0.00533538,0.00536123,0.00538772,0.00532867,0.00547197,0.00546454,0.0054849,0.00551642,0.00554478,0.00555995,0.00557624,0.00557692,0.00553327,0.0054988,0.00534967,0.00524194,0.00523807,0.00420843,0.00311177,0.00894644,0.00624326,0.00600022,0.00603209,0.00605333,0.00606979,0.00605882,0.00607467
0.146613,0.146613,0.146613,0.146613,0.146613,0.146613,0.146613,0.146613,0.146613,0.146613,0.146613,0.146613,0.146613,0.146613,0.146613,0.146613,0.146613,0.146613,0.00041058,0.000404113,0.000403516,0.000390369,0.000391102,0.000396653,0.000350732,0.000352586,0.000423291,0.000394586,0.000374113,0.000396074,0.000409655,0.000420834,0.000426005,0.000397078,0.000412476,0.000530973,0.000591735,0.000628313,0.000652513,0.00068277,0.000695144,0.000723137,0.000731252,0.000747613,0.000776438,0.000816477,0.000861292,0.000895844,0.000921778,0.000946736,0.00096972,0.000991544,0.00100016,0.00100303,0.00100496,0.00100714,0.00100907,0.00101036,0.00101324,0.00101623,0.00101946,0.00101992,0.00101611,0.00101077,0.00101864,0.00104464,0.00103636,0.00103694,0.00104026,0.0010436,0.00104663,0.00105151,0.00105408,0.00105759,0.00106139,0.00106539,0.00106925,0.00107291,0.00107724,0.00108229,0.00108587,0.0010916,0.00109485,0.00110059,0.00110465,0.00111252,0.00111559,0.00112113,0.00112678,0.00113237,0.00113953,0.00114777,0.00115259,0.00115353,0.00116396,0.00117687,0.00118041,0.00118827,0.00119456,0.00120607,0.00121246,0.00122003,0.00123172,0.00124104,0.00124926,0.00125527,0.00125797,0.00127832,0.00129395,0.00130318,0.00131231,0.00132623,0.00135172,0.00138067,0.00141255,0.00142849,0.00144669,0.00146561,0.00148165,0.00149843,0.0015224,0.00153856,0.0015515,0.00157444,0.00159365,0.0016134,0.00162768,0.00164737,0.0016611,0.00167874,0.00169083,0.0017058,0.00172502,0.00174806,0.0017753,0.00180046,0.00182883,0.00184883,0.0018879,0.0019124,0.00194359,0.00197304,0.00200477,0.00204497,0.00207562,0.00210702,0.00215189,0.00218875,0.00223909,0.00227361,0.00232508,0.00237466,0.00242561,0.0024738,0.00252024,0.00255973,0.0026036,0.00265337,0.00267833,0.00271301,0.00274493,0.00275693,0.00278598,0.00281143,0.00284553,0.00285899,0.00288971,0.00290978,0.00293879,0.00296287,0.00298243,0.00300719,0.00303602,0.00305896,0.00308708,0.00311522,0.00314254,0.00316292,0.00319098,0.00321697,0.00324064,0.00326103,0.00329292,0.00331992,0.00333909,0.00336506,0.00337907,0.00342569,0.0034434,0.0034594,0.00349112,0.00352133,0.00352504,0.00357067,0.00364297,0.00363341,0.00357457,0.00353686,0.00354497,0.00347074,0.00329343,0.00264151,-0.000229865,-0.000637198,0.0076084,0.00385352,0.00396011,0.00397608,0.00401668,0.00403889,0.0040583,0.00411272,0.00419939,0.00424382,0.0042649,0.00428452,0.00429813,0.00430775,0.00430775,0.0043244,0.00434345,0.00436148,0.00437536,0.00438897,0.00441342,0.00443114,0.0044618,0.00449588,0.0045055,0.00452113,0.00454764,0.00457693,0.00459994,0.00462356,0.00464864,0.00467326,0.00469795,0.00472163,0.00475459,0.00477713,0.00479195,0.00483408,0.00485111,0.00487937,0.00490003,0.00493068,0.0049581,0.00497766,0.00500169,0.00502977,0.00505507,0.00507802,0.00510211,0.00512972,0.00516123,0.00517126,0.00520473,0.00523932,0.00521304,0.00530843,0.00530936,0.00532813,0.00536123,0.00538772,0.00532867,0.00547197,0.00545872,0.0054849,0.00551642,0.00554478,0.00555995,0.00557624,0.00557692,0.00553327,0.0054988,0.00534967,0.00524194,0.00523807,0.00420843,0.00311177,0.00894644,0.00624326,0.00600022,0.00603209,0.00605333,0.00607007,0.00606171,0.00607467
0.146538,0.146538,0.146538,0.146538,0.146538,0.146538,0.146538,0.146538,0.146538,0.146538,0.146538,0.146538,0.146538,0.146538,0.146538,0.146538,0.146538,0.146538,0.146538,0.0004048,0.000403516,0.000390369,0.000391102,0.000396653,0.000375315,0.000352586,0.000423291,0.000394586,0.000374113,0.000396074,0.000409655,0.000420834,0.000426005,0.000397078,0.000412476,0.000530973,0.000591735,0.000628313,0.000652513,0.00068277,0.000695144,0.000723137,0.000731252,0.000747613,0.000776438,0.000816477,0.000855662,0.000895844,0.000921778,0.000946736,0.00096972,0.000991544,0.00100016,0.00100303,0.00100496,0.00100714,0.00100907,0.00101036,0.00101324,0.00101623,0.00101946,0.00101992,0.00101611,0.00101066,0.00101864,0.00104464,0.00103636,0.00103694,0.00104026,0.0010436,0.00104663,0.00105084,0.00105408,0.00105759,0.00106139,0.00106539,0.00106925,0.00107291,0.00107724,0.00108229,0.00108587,0.0010916,0.00109485,0.00110059,0.00110465,0.00111165,0.00111559,0.00112113,0.00112678,0.00113237,0.00113953,0.00114777,0.00115259,0.00115353,0.00116396,0.00117687,0.00118041,0.00118827,0.00119456,0.00120607,0.00121246,0.00122003,0.00123172,0.00124104,0.00124926,0.00125527,0.00125797,0.00127832,0.00129395,0.00130318,0.00131231,0.00132623,0.00135172,0.00138067,0.00141255,0.00142849,0.00144669,0.00146245,0.00148165,0.00149843,0.00151584,0.00153856,0.0015515,0.00157444,0.00159365,0.0016134,0.00162768,0.00164737,0.0016611,0.00167874,0.00169083,0.0017058,0.00172502,0.00174806,0.0017753,0.00180046,0.00182883,0.00184883,0.0018879,0.0019124,0.00194359,0.00197304,0.00200477,0.00203899,0.00207562,0.00210702,0.00214556,0.00218875,0.00223909,0.00227361,0.00232508,0.00237466,0.00242561,0.0024738,0.00252024,0.00255973,0.0026036,0.00265337,0.00267833,0.00271301,0.00273315,0.00275693,0.00278598,0.00280642,0.00284553,0.00285899,0.00288055,0.00290978,0.00293879,0.00296287,0.00298243,0.00300719,0.00303602,0.00305896,0.00308708,0.00311522,0.00314254,0.00316292,0.00319098,0.00321697,0.00324064,0.00326103,0.00329292,0.00330812,0.00333909,0.00336506,0.00337907,0.00342569,0.0034434,0.0034594,0.00349112,0.00352133,0.00352504,0.00357067,0.00364297,0.00363341,0.00357457,0.00353686,0.00354497,0.00347074,0.00329343,0.00264151,-0.000229865,-0.000637198,0.0076084,0.00432241,0.00396011,0.00397608,0.00401668,0.00403889,0.0040583,0.00411272,0.00419939,0.00424382,0.0042649,0.00428452,0.00429813,0.00430775,0.00430775,0.0043244,0.00434345,0.00436148,0.00437536,0.00438897,0.00441342,0.00443114,0.0044618,0.00449588,0.0045055,0.00452113,0.00454764,0.00457693,0.00459994,0.00462356,0.00464864,0.00467326,0.00469795,0.00472163,0.00475459,0.00477713,0.00479195,0.00483408,0.00485111,0.00487937,0.00490003,0.00493068,0.00495258,0.00497766,0.00500169,0.00502977,0.00505507,0.00507802,0.00510211,0.00512972,0.00516123,0.00517126,0.00520473,0.00523932,0.00521304,0.00530843,0.00530936,0.00532813,0.00536123,0.00538772,0.00532867,0.00547197,0.00545872,0.0054849,0.00551642,0.00554478,0.00555995,0.00557624,0.00557692,0.00553327,0.0054988,0.00534967,0.00524194,0.00523807,0.00420843,0.00311177,0.00894644,0.00624326,0.00600022,0.00603209,0.00604441,0.00607007,0.00606171,0.00607467
0.146516,0.146516,0.146516,0.146516,0.146516,0.146516,0.146516,0.146516,0.146516,0.146516,0.146516,0.146516,0.146516,0.146492,0.146492,0.146492,0.146492,0.146492,0.146432,0.146432,0.000403516,0.000390369,0.000391102,0.000396653,0.000375315,0.000352586,0.000423291,0.000394586,0.000374113,0.000396074,0.000409655,0.000420834,0.000426005,0.000402497,0.000385168,0.000530973,0.000591735,0.000628313,0.000652513,0.000678475,0.000695144,0.000723137,0.000731252,0.000747613,0.000776438,0.000816477,0.000855662,0.000895844,0.000921778,0.000946736,0.00096972,0.000991544,0.00100016,0.00100303,0.00100496,0.00100714,0.00100907,0.00101036,0.00101324,0.00101623,0.00101946,0.00101992,0.00101611,0.00101066,0.00101864,0.00104464,0.00103636,0.00103694,0.00104026,0.0010436,0.00104663,0.00105084,0.00105408,0.00105759,0.00106003,0.00106539,0.00106925,0.00107291,0.00107724,0.00108229,0.00108587,0.0010916,0.00109485,0.00110059,0.00110465,0.00111165,0.00111559,0.00112113,0.00112678,0.00113237,0.00113953,0.00114777,0.00115259,0.00115347,0.00116396,0.00117687,0.00118041,0.00118827,0.00119456,0.00120607,0.00121246,0.00122003,0.00123172,0.00124104,0.00124926,0.00125527,0.00125797,0.00127832,0.00129395,0.00130318,0.00131231,0.00132623,0.00135172,0.00138067,0.00140907,0.00142849,0.00144669,0.00146245,0.00147522,0.00149843,0.00151584,0.00153856,0.0015515,0.00157444,0.00159365,0.0016134,0.00162768,0.00164737,0.0016611,0.00167874,0.00169083,0.0017058,0.00172502,0.00174806,0.0017753,0.00179585,0.00182883,0.00184883,0.0018879,0.0019124,0.00194359,0.00197304,0.00200477,0.00203899,0.00207562,0.00210702,0.00214556,0.00218875,0.00223909,0.00227361,0.00232508,0.00237466,0.00242561,0.0024738,0.00252024,0.00255973,0.0026036,0.00265337,0.00267833,0.00271301,0.00273315,0.00275693,0.00278598,0.00280642,0.00284553,0.00285899,0.00288055,0.00290978,0.00293879,0.00296287,0.00298243,0.00300719,0.00303602,0.00305896,0.00308708,0.00311522,0.00314254,0.00316292,0.00319098,0.00321697,0.00324064,0.00326103,0.00329292,0.00330812,0.00333909,0.00335552,0.00337907,0.00342569,0.0034434,0.0034594,0.00349112,0.00352133,0.00352504,0.00352431,0.00364297,0.00363341,0.00357457,0.00353686,0.00354497,0.00347074,0.00329343,0.00264151,-0.000229865,-0.000637198,0.0076084,0.00432241,0.00396011,0.00397608,0.00401668,0.00403889,0.0040583,0.00411272,0.00419939,0.00424382,0.0042649,0.00428452,0.00429813,0.00430775,0.00430775,0.0043244,0.00434345,0.00436148,0.00437536,0.00438897,0.00440771,0.00443114,0.0044618,0.00449588,0.0045055,0.00452113,0.00454764,0.00457693,0.00459994,0.00462356,0.00464864,0.00467326,0.00469795,0.00472163,0.00475459,0.00477713,0.00479195,0.00482348,0.00485111,0.00487937,0.00490003,0.00493068,0.00495258,0.00496872,0.00500169,0.00502977,0.00505507,0.00507802,0.00510211,0.00512972,0.00516123,0.00517126,0.00520473,0.00523932,0.00521304,0.00530843,0.00530936,0.00532813,0.00536123,0.00538772,0.00532867,0.00547197,0.00545872,0.0054849,0.00551642,0.00554478,0.00555995,0.00557624,0.00557692,0.00553327,0.0054988,0.00534967,0.00524194,0.00523807,0.00420843,0.00311177,0.00894644,0.00624326,0.00600022,0.0060232,0.00604441,0.00607007,0.00606171,0.00607467
0.146432,0.146432,0.146432,0.146432,0.146432,0.146432,0.146432,0.146432,0.146432,0.146432,0.146432,0.146432,0.146432,0.146432,0.146432,0.146432,0.146432,0.146432,0.146432,0.146432,0.146432,0.000390369,0.000391102,0.000396653,0.000375315,0.000352586,0.000423291,0.000394586,0.000374113,0.000396074,0.000409655,0.000420834,0.000426005,0.000402497,0.000385168,0.000530973,0.000591735,0.000628313,0.000652513,0.000678475,0.000695144,0.000723137,0.000731252,0.000747613,0.000776438,0.000816477,0.000855662,0.000895844,0.000916854,0.000946736,0.00096972,0.000991544,0.00100016,0.00100303,0.00100496,0.00100714,0.00100907,0.00101036,0.00101324,0.00101623,0.00101946,0.00101992,0.00101611,0.00101066,0.00101864,0.00104464,0.00103636,0.00103694,0.00104026,0.0010436,0.00104663,0.00105084,0.00105408,0.00105759,0.00106003,0.00106539,0.00106925,0.00107291,0.00107574,0.00108229,0.00108587,0.0010916,0.00109485,0.00110059,0.00110465,0.00111165,0.00111559,0.00112113,0.00112678,0.00113237,0.00113953,0.00114777,0.00115259,0.00115347,0.00116396,0.00117687,0.00118041,0.00118827,0.00119456,0.00120477,0.00121246,0.00122003,0.00123172,0.00124104,0.00124926,0.00125527,0.00125797,0.00127832,0.00129395,0.00130318,0.00131231,0.00132623,0.00135172,0.00138067,0.00140907,0.00142849,0.00144669,0.00146245,0.00147522,0.00149843,0.00151584,0.00153856,0.0015515,0.00157444,0.00159365,0.0016134,0.00162768,0.00164737,0.0016611,0.00167874,0.00169083,0.0017058,0.00172502,0.00174806,0.0017753,0.00179585,0.00182883,0.00184883,0.0018879,0.0019124,0.00193821,0.00197304,0.00200477,0.00203899,0.00207562,0.00210702,0.00214556,0.00218875,0.00223909,0.00227361,0.00232508,0.00237466,0.00242561,0.0024738,0.00252024,0.00255973,0.0026036,0.00265337,0.00267833,0.00271301,0.00273315,0.00275693,0.00278598,0.00280642,0.00284553,0.00285899,0.00287707,0.00290978,0.00293879,0.00296287,0.00298243,0.00300719,0.00303602,0.00305896,0.00308708,0.00311522,0.00313471,0.00316292,0.00319098,0.00321697,0.00324064,0.00326103,0.00329292,0.00330812,0.00333909,0.00335552,0.00337907,0.00342569,0.0034434,0.0034594,0.00349112,0.00352133,0.00352504,0.00352431,0.00364297,0.00363341,0.00358597,0.00353686,0.00354096,0.00347074,0.00329343,0.00264151,-0.000229865,-0.000637198,0.0076084,0.00432241,0.00395925,0.00397608,0.00401668,0.00403889,0.0040583,0.00411272,0.00419939,0.00424382,0.0042649,0.00428452,0.00429813,0.00430777,0.00430775,0.0043244,0.00434345,0.00436148,0.00437536,0.00438897,0.00440771,0.00443114,0.0044618,0.00449588,0.0045055,0.00452113,0.00454764,0.00457693,0.00459994,0.00462356,0.00464864,0.00467326,0.00469795,0.00472163,0.00475136,0.00476887,0.00479195,0.00482348,0.00484563,0.00487937,0.00490003,0.00493068,0.00495258,0.00496872,0.00500169,0.00502977,0.00505236,0.00507802,0.00510211,0.00512972,0.00516123,0.00517126,0.00520473,0.00523932,0.00521304,0.00530843,0.00530936,0.00532813,0.00536123,0.00538772,0.00532867,0.00547197,0.00545872,0.0054849,0.00551642,0.00554478,0.00555995,0.00557624,0.00557692,0.00553327,0.0054988,0.00534967,0.00524194,0.00525794,0.00420843,0.00311177,0.00894644,0.00624326,0.00600022,0.0060232,0.00604441,0.00607007,0.00606171,0.00607467
0.146345,0.146345,0.146345,0.146345,0.146345,0.146345,0.146345,0.146345,0.146345,0.146345,0.146345,0.146345,0.146345,0.146345,0.146345,0.146345,0.146345,0.146345,0.146345,0.146345,0.146345,0.146345,0.000391102,0.000396653,0.000375315,0.000352586,0.000423291,0.000394586,0.000374113,0.000396074,0.000409655,0.000420834,0.000426005,0.000402497,0.000385168,0.000530973,0.000591735,0.000628313,0.000652513,0.000678475,0.000695144,0.000723137,0.000731252,0.000747613,0.000776438,0.000816477,0.000855662,0.000895844,0.000916854,0.000946736,0.00096972,0.000991544,0.00100016,0.00100303,0.00100496,0.00100714,0.00100907,0.00101036,0.00101324,0.00101623,0.00101946,0.00101992,0.00101611,0.00101066,0.00101864,0.00104464,0.00103636,0.00103694,0.00104026,0.0010436,0.00104663,0.00105084,0.00105408,0.00105759,0.00106003,0.00106539,0.00106925,0.00107291,0.00107574,0.00108229,0.00108587,0.0010916,0.00109485,0.00110059,0.00110465,0.00111165,0.00111559,0.00112113,0.00112678,0.00113237,0.00113953,0.00114777,0.00115259,0.00115335,0.00116396,0.00117687,0.00118041,0.00118827,0.00119456,0.00120477,0.00121246,0.00122003,0.00123172,0.00124104,0.00124926,0.00125527,0.00125797,0.00127832,0.00129252,0.00130318,0.00131231,0.00132623,0.00135172,0.00138067,0.00140907,0.00142849,0.00144669,0.00146245,0.00147522,0.00149843,0.00151584,0.00153856,0.0015515,0.00157444,0.00159365,0.0016134,0.00162768,0.00164737,0.0016611,0.00167874,0.00169083,0.0017058,0.00172502,0.00174806,0.0017753,0.00179585,0.00182883,0.00184883,0.0018879,0.0019124,0.00193821,0.00197304,0.00200477,0.00203899,0.00207562,0.00210702,0.00214556,0.00218875,0.00223909,0.00227361,0.00232508,0.00237466,0.00242561,0.00246561,0.00252024,0.00255973,0.0026036,0.00265337,0.00267833,0.00271301,0.00273315,0.00275693,0.00278598,0.00280642,0.00284553,0.00285899,0.00287707,0.00290978,0.00293879,0.00296287,0.00298243,0.00300719,0.00303602,0.00305896,0.00308708,0.00311522,0.00313471,0.00316292,0.00319098,0.00321697,0.00324064,0.00326103,0.00329292,0.00330812,0.00333909,0.00335552,0.00337907,0.00341198,0.0034434,0.0034594,0.00349112,0.00352133,0.00352504,0.00352431,0.00364297,0.00363341,0.00358597,0.00353686,0.00354096,0.00347074,0.00329343,0.00264151,-0.000229865,-0.000637198,0.0076084,0.00432241,0.00395925,0.00397608,0.00401668,0.00403889,0.0040583,0.00411272,0.00419939,0.00424382,0.0042649,0.00428452,0.00429813,0.00430777,0.00430775,0.0043244,0.00434345,0.00436148,0.00437536,0.00438897,0.00440771,0.00443114,0.0044618,0.00449588,0.0045055,0.00452113,0.00454764,0.00457693,0.00459994,0.00462356,0.00464864,0.00467326,0.00469795,0.00472163,0.00475136,0.00476887,0.00479195,0.00482348,0.00484299,0.00487937,0.00490003,0.00492739,0.00495258,0.00496872,0.00500169,0.0050267,0.00505236,0.00507802,0.00510211,0.00512972,0.00516123,0.00517126,0.00520473,0.00523932,0.00521304,0.00530843,0.00530936,0.00532813,0.00536123,0.00538772,0.00532867,0.00547197,0.00545872,0.0054849,0.00551642,0.0055391,0.00555995,0.00557624,0.00557692,0.00553327,0.00551351,0.00534967,0.00524194,0.00525794,0.00463015,0.00311177,0.00894644,0.00624326,0.00600022,0.0060232,0.00604441,0.00607007,0.00606171,0.00607467
0.146243,0.146243,0.146243,0.146243,0.146243,0.146243,0.146243,0.146243,0.146243,0.146243,0.146243,0.146243,0.146243,0.146243,0.146243,0.146243,0.146243,0.146243,0.146243,0.146243,0.146243,0.146243,0.146243,0.000396653,0.000375315,0.000352586,0.000415045,0.000394586,0.000374113,0.000396074,0.000409655,0.000420834,0.000426005,0.000402497,0.000384089,0.000530973,0.000591735,0.000628313,0.000652513,0.000678475,0.000695144,0.000723137,0.000731252,0.000747613,0.000776438,0.000816477,0.000855662,0.000895844,0.000916854,0.000946736,0.00096972,0.000991544,0.00100016,0.00100303,0.00100496,0.00100714,0.00100907,0.00101036,0.00101324,0.00101623,0.00101906,0.00101992,0.00101611,0.00101066,0.00101864,0.00104464,0.00103636,0.00103694,0.00104026,0.0010436,0.00104663,0.00105084,0.00105408,0.00105759,0.00106003,0.00106539,0.00106925,0.00107291,0.00107574,0.00108229,0.00108587,0.0010916,0.00109485,0.00109973,0.00110465,0.00111165,0.00111559,0.00112113,0.00112678,0.00113237,0.00113953,0.00114777,0.00115211,0.00115335,0.00116396,0.00117687,0.00118041,0.00118827,0.00119456,0.00120477,0.00121119,0.00122003,0.00123172,0.00124104,0.00124926,0.00125527,0.00125797,0.00127832,0.00129252,0.00130318,0.00131231,0.00132623,0.00135172,0.00138067,0.00140907,0.00142849,0.00144669,0.00145612,0.00147522,0.00149843,0.00151584,0.00153856,0.0015515,0.00157444,0.00159365,0.0016134,0.00162768,0.00164183,0.0016611,0.00167874,0.00169083,0.0017058,0.00172196,0.00174806,0.0017753,0.00179585,0.00182391,0.00184883,0.0018879,0.0019124,0.00193821,0.00197304,0.00200477,0.00203899,0.00206941,0.00210702,0.00214556,0.00217621,0.00221486,0.00227361,0.00232508,0.00236637,0.00242561,0.00246561,0.00252024,0.00255973,0.0026036,0.00263288,0.00267833,0.00271301,0.00273315,0.00275693,0.00278598,0.00280642,0.00284553,0.00285899,0.00287707,0.00290502,0.00293879,0.00296287,0.00298243,0.00300719,0.00303602,0.00305896,0.00308708,0.00311522,0.00313471,0.00316292,0.00319098,0.00321697,0.00324064,0.00326103,0.00329292,0.00330812,0.00333909,0.00335552,0.00337907,0.00341198,0.0034434,0.0034594,0.00349112,0.00352133,0.00352504,0.00352431,0.00364297,0.00363688,0.00358597,0.00353686,0.00354096,0.00347074,0.00329343,0.00264151,-0.000229865,-0.000637198,0.0076084,0.00501984,0.00395925,0.00397608,0.00401668,0.00403889,0.0040583,0.00411272,0.00419939,0.00424382,0.00426239,0.00428452,0.00429813,0.00430777,0.00430775,0.0043244,0.00434345,0.00436148,0.00437536,0.00438897,0.00440771,0.00443114,0.0044618,0.00449588,0.0045055,0.00452113,0.00454764,0.00457693,0.00459994,0.00462356,0.00464864,0.00467326,0.00469795,0.00472163,0.00475136,0.00476887,0.00479195,0.00482348,0.00484299,0.00487937,0.00490003,0.00492739,0.00495258,0.00496872,0.00499264,0.0050267,0.00505236,0.00507802,0.00509869,0.00512972,0.00516123,0.00517126,0.00520473,0.00523932,0.00521304,0.00530843,0.00530936,0.00532647,0.00536123,0.00538772,0.00532867,0.00547197,0.00545872,0.0054849,0.00551642,0.0055391,0.00555995,0.00557624,0.00557692,0.00553327,0.00551351,0.00534967,0.00524194,0.00525794,0.00463015,0.00311177,0.00894644,0.00624326,0.00600022,0.0060232,0.00604441,0.00607007,0.00606171,0.00607467
0.146182,0.146182,0.146121,0.146121,0.146121,0.146121,0.146121,0.146121,0.146121,0.146121,0.146121,0.146121,0.146121,0.146121,0.146121,0.146121,0.146121,0.146121,0.146121,0.146121,0.146121,0.146121,0.146121,0.146121,0.000375315,0.000352586,0.000415045,0.000394586,0.000374113,0.000396074,0.000409655,0.000420834,0.000426005,0.000402497,0.000384089,0.000530973,0.000591735,0.000628313,0.000652513,0.000678475,0.000695144,0.000723137,0.000731252,0.000747613,0.000776438,0.000816477,0.000855662,0.000895844,0.000916854,0.000946736,0.00096972,0.000991544,0.00100016,0.00100303,0.00100496,0.00100714,0.00100907,0.00101036,0.00101324,0.00101623,0.00101906,0.00101992,0.00101761,0.00101066,0.00101864,0.00104464,0.00103636,0.00103694,0.00104026,0.0010436,0.00104663,0.00105084,0.00105408,0.00105759,0.00106003,0.00106539,0.00106925,0.00107291,0.00107574,0.00108139,0.00108587,0.0010916,0.00109485,0.00109973,0.00110465,0.00111165,0.00111559,0.00112113,0.00112678,0.00113237,0.00113953,0.00114777,0.00115211,0.00115335,0.00116396,0.00117687,0.00118041,0.00118827,0.00119456,0.00120477,0.00121119,0.00122003,0.00123172,0.00124104,0.00124926,0.00125527,0.00125797,0.00127832,0.00129252,0.00130318,0.00131231,0.00132623,0.00135172,0.00138067,0.00140907,0.00142849,0.00144669,0.00145612,0.00147522,0.00149843,0.00151584,0.00153856,0.0015515,0.00157444,0.00159365,0.00160676,0.00162768,0.00164183,0.0016611,0.00167874,0.00169083,0.0017058,0.00172196,0.00174806,0.0017753,0.00179585,0.00182391,0.00184883,0.0018879,0.0019124,0.00193821,0.00197304,0.00200477,0.00203301,0.00206941,0.00210702,0.00214556,0.00217621,0.00221486,0.00227361,0.00231689,0.00236637,0.00242561,0.00246561,0.00252024,0.00255973,0.00259584,0.00263288,0.00267833,0.00271301,0.00273315,0.00275693,0.00278598,0.00280642,0.00284553,0.00285899,0.00287707,0.00290502,0.00293879,0.00296287,0.00298243,0.00300719,0.00303602,0.00305896,0.00308708,0.00311522,0.00313471,0.00316292,0.00319098,0.00320577,0.00324064,0.00326103,0.00328913,0.00330812,0.00333909,0.00335552,0.00337907,0.00341198,0.0034434,0.0034594,0.00349112,0.00352133,0.00352504,0.00352431,0.00364297,0.00363688,0.00359736,0.00353686,0.00354096,0.00349073,0.00329343,0.00264151,0.000290984,-0.000637198,0.0076084,0.00501984,0.00395925,0.00397608,0.00401668,0.00403889,0.0040583,0.00411272,0.00419939,0.00424382,0.00426239,0.00428452,0.00429813,0.00430777,0.00430775,0.0043244,0.00434345,0.00436148,0.00437536,0.00438897,0.00440771,0.00443114,0.0044618,0.00449588,0.0045055,0.00452113,0.00454764,0.00457693,0.00459994,0.00462356,0.00464864,0.00467326,0.00469795,0.00472163,0.00475136,0.00476887,0.00479195,0.00482348,0.00484299,0.00487573,0.00490003,0.00492739,0.00495258,0.00496872,0.00499264,0.0050267,0.00505236,0.00507802,0.00509869,0.00512972,0.00516123,0.00517126,0.00520473,0.00523932,0.00521304,0.00530843,0.00530936,0.00532647,0.00536123,0.00538772,0.00532867,0.00547197,0.00545872,0.0054849,0.00550272,0.0055391,0.00555995,0.00557252,0.00557692,0.00553327,0.00551351,0.00534967,0.00524469,0.00525794,0.00463015,0.00311177,0.00894644,0.00624326,0.00600022,0.0060232,0.00604441,0.00607007,0.00606171,0.00607467
0.146121,0.146121,0.146121,0.146093,0.146093,0.146093,0.146093,0.146093,0.146093,0.146093,0.146093,0.146093,0.146093,0.146016,0.146016,0.146016,0.146016,0.146016,0.146016,0.146016,0.146016,0.146016,0.146016,0.146016,0.146016,0.000351407,0.000415045,0.000394586,0.000362139,0.000396074,0.000409655,0.000420834,0.000426005,0.000402497,0.000384089,0.000530973,0.000591735,0.000628313,0.000652513,0.000678475,0.000695144,0.000713692,0.000731252,0.000747613,0.000776438,0.000816477,0.000855662,0.000895844,0.000916854,0.000946736,0.00096972,0.000991544,0.00100016,0.00100303,0.00100496,0.00100714,0.00100876,0.00101036,0.00101324,0.00101623,0.00101906,0.00101992,0.00101761,0.00101066,0.00101864,0.00104464,0.00103636,0.00103694,0.00104026,0.0010436,0.00104663,0.00105016,0.00105408,0.00105759,0.00106003,0.00106539,0.00106925,0.00107291,0.00107574,0.00108139,0.00108587,0.0010916,0.00109485,0.00109973,0.00110465,0.00111071,0.00111559,0.00112113,0.00112678,0.00113237,0.00113953,0.00114777,0.00115211,0.00115335,0.00116396,0.00117687,0.00118041,0.0011867,0.00119456,0.00120477,0.00121119,0.00122003,0.00123172,0.00124104,0.00124926,0.00125527,0.00125797,0.00127832,0.00129252,0.00130318,0.00131231,0.00132623,0.00135172,0.00138067,0.00140907,0.00142849,0.00144669,0.00145612,0.00147522,0.00149843,0.00151584,0.00153534,0.0015515,0.00157444,0.00159365,0.00160676,0.00162486,0.00164183,0.00165831,0.00167874,0.00169083,0.0017058,0.00172196,0.00174806,0.0017753,0.00179585,0.00182391,0.00184883,0.0018879,0.0019124,0.00193821,0.00197304,0.00200477,0.00203301,0.00206941,0.00210702,0.00214556,0.00217621,0.00221486,0.00227361,0.00231689,0.00236637,0.00242561,0.00246561,0.00252024,0.00255973,0.00259584,0.00263288,0.00267833,0.00271301,0.00273315,0.00275693,0.00278598,0.00280642,0.00284553,0.00285899,0.00287707,0.00290502,0.00293879,0.00296287,0.00298243,0.00300719,0.00303602,0.00305896,0.00308708,0.00311522,0.00313471,0.00316292,0.00319098,0.00320577,0.00324064,0.00326103,0.00328913,0.00330812,0.00333909,0.00335552,0.00337907,0.00341198,0.0034434,0.0034594,0.00349112,0.00352133,0.00352504,0.00352431,0.00364297,0.00363688,0.00359736,0.00353686,0.00354096,0.00349073,0.00329343,0.00264151,0.000290984,-0.000637198,0.0076084,0.00571727,0.00395925,0.00397608,0.00401668,0.00403889,0.0040583,0.00411272,0.00419939,0.00424382,0.00426239,0.00428452,0.00429813,0.00430777,0.00430745,0.00431678,0.00434345,0.00436148,0.00437536,0.00438897,0.00440771,0.00443114,0.0044618,0.00448767,0.0045055,0.00452113,0.00454764,0.00457693,0.00459994,0.00462356,0.00464864,0.00467326,0.00469795,0.00472163,0.00475136,0.00476887,0.00479195,0.00482348,0.00484299,0.00486371,0.00490003,0.00492739,0.00494954,0.00496872,0.00499264,0.0050267,0.00505236,0.0050753,0.00509869,0.00512972,0.00516123,0.00517126,0.00520473,0.00523932,0.00521304,0.00530843,0.00530936,0.00532647,0.00536123,0.00538772,0.00532867,0.00547197,0.00545872,0.00547694,0.00550272,0.0055391,0.00555995,0.00557252,0.00557692,0.00553327,0.00551351,0.00534967,0.00524469,0.00525794,0.00463015,0.00311177,0.00894644,0.0081491,0.00600022,0.0060232,0.00604441,0.00607007,0.00606171,0.00607482
0.146016,0.146016,0.146016,0.146016,0.146016,0.146016,0.146016,0.145921,0.145921,0.145921,0.145921,0.145921,0.145921,0.145921,0.145921,0.145921,0.145921,0.145921,0.145921,0.145921,0.145921,0.145921,0.145921,0.145921,0.145921,0.145921,0.000415045,0.000394586,0.000362139,0.000396074,0.000409655,0.000420834,0.000426005,0.000402497,0.000384089,0.000530973,0.000591735,0.000628313,0.000652513,0.000674179,0.000695144,0.000713692,0.000731252,0.000747613,0.000776438,0.000816477,0.000855662,0.000895844,0.000916854,0.000946736,0.00096972,0.000991544,0.00100016,0.00100303,0.00100496,0.00100714,0.00100876,0.00101036,0.00101324,0.00101499,0.00101906,0.00101992,0.00101761,0.00101066,0.00101864,0.00104464,0.00103636,0.00103694,0.00104026,0.0010436,0.00104538,0.00105016,0.00105408,0.00105759,0.00106003,0.00106539,0.00106925,0.00107291,0.00107574,0.00108139,0.00108587,0.00108913,0.00109485,0.00109973,0.00110465,0.00111071,0.00111559,0.00112113,0.00112678,0.00113237,0.00113953,0.00114777,0.00115211,0.00115335,0.00116396,0.00117307,0.00118041,0.0011867,0.00119456,0.00120477,0.00121119,0.00122003,0.00123172,0.00123923,0.00124926,0.00125527,0.00125797,0.00127832,0.00129252,0.00130318,0.00131231,0.00132623,0.00135172,0.00138067,0.00140907,0.00142559,0.00143728,0.00145612,0.00147522,0.00149843,0.00151584,0.00153534,0.0015515,0.00157444,0.00159043,0.00160676,0.00162486,0.00164183,0.00165831,0.00167874,0.00169083,0.0017058,0.00172196,0.00174806,0.0017753,0.00179585,0.00182391,0.00184883,0.0018879,0.0019124,0.00193821,0.00197304,0.00199924,0.00203301,0.00206941,0.00210702,0.00214556,0.00217621,0.00221486,0.00227361,0.00231689,0.00236637,0.00242561,0.00246561,0.00252024,0.00255973,0.00259584,0.00263288,0.00267833,0.00271301,0.00273315,0.00275693,0.00278598,0.00280642,0.00283608,0.00285899,0.00287707,0.00290502,0.00293879,0.00296287,0.00298243,0.00300719,0.00303602,0.00305896,0.00308708,0.00311522,0.00313471,0.00316292,0.00319098,0.00320577,0.00323242,0.00326103,0.00328913,0.00330812,0.00333909,0.00335552,0.00337907,0.00341198,0.0034434,0.0034594,0.00349112,0.00352133,0.00352504,0.00352431,0.00361429,0.00363688,0.00362015,0.00353686,0.00354096,0.00349073,0.00329343,0.00264151,0.000290984,-0.000637198,0.0076084,0.00571727,0.00395925,0.00397608,0.00401668,0.00403889,0.0040583,0.00411272,0.00419939,0.00424382,0.00426239,0.00428452,0.00429813,0.00430777,0.00430745,0.00431678,0.00434345,0.00436148,0.00437536,0.00438897,0.00440771,0.00443114,0.0044618,0.00448767,0.0045055,0.00452113,0.00454764,0.00457693,0.00459994,0.00462356,0.00464864,0.00467326,0.00469795,0.00471559,0.00475136,0.00476887,0.00479195,0.00482348,0.00484299,0.00486371,0.00490003,0.00492739,0.00494954,0.00496872,0.00499264,0.0050267,0.00505236,0.0050753,0.00509869,0.00512972,0.00516123,0.00517126,0.00520473,0.00523932,0.00521304,0.00530843,0.00530936,0.00532647,0.00536123,0.00538772,0.00532867,0.00546812,0.00545872,0.00547694,0.00550272,0.0055391,0.00555995,0.00557252,0.00557692,0.00553327,0.00551351,0.00534967,0.00524469,0.00525794,0.00463015,0.00311177,0.00894644,0.0081491,0.00600022,0.0060232,0.00604441,0.00607007,0.00606171,0.00607026
0.145921,0.145921,0.145921,0.145921,0.145921,0.14588,0.14588,0.14588,0.14588,0.14588,0.14588,0.14588,0.14588,0.145771,0.145771,0.145771,0.145771,0.145771,0.145771,0.145771,0.145771,0.145771,0.145771,0.145771,0.145771,0.145771,0.145771,0.000394586,0.000362139,0.000396074,0.000409655,0.000420834,0.000426005,0.000402497,0.000384089,0.00051755,0.000591735,0.000628313,0.000652513,0.000665588,0.000695144,0.000713692,0.000731252,0.000747613,0.000776438,0.000816477,0.000855662,0.000884115,0.000916854,0.000946736,0.00096972,0.000991544,0.00100016,0.00100303,0.00100496,0.00100714,0.00100876,0.00101036,0.00101278,0.00101499,0.00101906,0.00101992,0.00101761,0.00101066,0.00101864,0.00104464,0.00103636,0.00103694,0.00104026,0.0010436,0.00104538,0.00105016,0.00105408,0.00105759,0.00106003,0.00106453,0.00106925,0.00107291,0.00107574,0.00108139,0.00108587,0.00108913,0.00109485,0.00109973,0.00110465,0.00111071,0.00111559,0.00112113,0.00112678,0.00113237,0.00113953,0.00114777,0.00115211,0.00115335,0.00116396,0.00117307,0.00118041,0.0011867,0.00119456,0.00120477,0.00121119,0.00122003,0.00123172,0.00123923,0.00124926,0.00125527,0.00125797,0.00127832,0.00129252,0.00130318,0.00131231,0.00132623,0.00135172,0.00138067,0.00140907,0.00142559,0.00143728,0.00145612,0.00147522,0.00149843,0.00151584,0.00153534,0.0015515,0.00157444,0.00159043,0.00160676,0.00162486,0.00164183,0.00165831,0.00167556,0.00169083,0.0017058,0.00172196,0.00174806,0.0017753,0.00179585,0.00182391,0.00184883,0.0018879,0.00190746,0.00193821,0.00197304,0.00199924,0.00203301,0.00206941,0.00210702,0.00214556,0.00217621,0.00221486,0.00227361,0.00231689,0.00236637,0.00242561,0.00245757,0.00252024,0.00255973,0.00259584,0.00263288,0.00267833,0.00271301,0.00273315,0.00275693,0.00278598,0.00280642,0.00283608,0.00285899,0.00287707,0.00290502,0.00293879,0.00296287,0.00298243,0.00300719,0.00303602,0.00305896,0.00308708,0.00311522,0.00313471,0.00316292,0.00319098,0.00320577,0.00323242,0.00326103,0.00328913,0.00330812,0.00333909,0.00335552,0.00337907,0.00341198,0.0034434,0.0034594,0.00349112,0.00352133,0.00352504,0.00352431,0.00361429,0.00363688,0.00362015,0.00353686,0.00354096,0.00349073,0.00339343,0.00264151,0.000290984,-0.000637198,0.0076084,0.00571727,0.00395925,0.00397608,0.00400439,0.00403889,0.00405193,0.00411272,0.00419939,0.00424382,0.00426239,0.00428452,0.00429607,0.00430777,0.00430745,0.00431678,0.00434345,0.00436148,0.00437536,0.00438897,0.00440771,0.00443114,0.0044618,0.00448767,0.0045055,0.00452113,0.00454764,0.00457693,0.00459994,0.00462356,0.00464864,0.00467326,0.00469795,0.00471559,0.00475136,0.00476887,0.00479195,0.00482348,0.00484299,0.00486371,0.00490003,0.00492739,0.00494954,0.00496872,0.00499264,0.0050267,0.00504965,0.0050753,0.00509869,0.00512972,0.00516123,0.00517126,0.00520473,0.00523932,0.00521248,0.00530843,0.00530936,0.00532647,0.00536123,0.00538772,0.00532867,0.00546812,0.00545872,0.00547694,0.00550272,0.0055391,0.00555995,0.00557252,0.00557692,0.00553327,0.00551351,0.00534967,0.00524469,0.00525794,0.00463015,0.00311177,0.00894644,0.0081491,0.00600022,0.0060232,0.00604441,0.00607007,0.00606171,0.00607026
0.145771,0.145771,0.145771,0.145771,0.145771,0.145771,0.145771,0.145771,0.145771,0.145771,0.145771,0.145771,0.145771,0.145728,0.145728,0.145728,0.145623,0.145623,0.145623,0.145623,0.145623,0.145623,0.145623,0.145623,0.145623,0.145623,0.145623,0.145623,0.000362139,0.000396074,0.000409655,0.000420834,0.000426005,0.000402497,0.000384089,0.00051755,0.000591735,0.000628313,0.000652513,0.000665588,0.000695144,0.000713692,0.000731252,0.000747613,0.000776438,0.000816477,0.000855662,0.000884115,0.000916854,0.000946736,0.00096972,0.000991544,0.00100016,0.00100303,0.00100496,0.00100714,0.00100815,0.00101036,0.00101278,0.00101499,0.00101906,0.00101992,0.00101761,0.00101066,0.00101864,0.00104464,0.00103636,0.00103694,0.00104026,0.0010436,0.00104538,0.00105016,0.00105408,0.00105759,0.00106003,0.00106453,0.00106925,0.00107234,0.00107574,0.00108139,0.00108587,0.00108913,0.00109485,0.00109973,0.00110465,0.00111071,0.00111559,0.00112113,0.00112678,0.00113237,0.00113953,0.00114777,0.00115211,0.00115335,0.00116396,0.00117307,0.00118041,0.0011867,0.00119456,0.00120477,0.00121119,0.00122003,0.00123172,0.00123547,0.00124775,0.00125527,0.00125797,0.00127832,0.00129252,0.00130318,0.00131231,0.00132623,0.00135172,0.00138067,0.00140907,0.00142559,0.00143728,0.00145612,0.00147522,0.00149843,0.00151584,0.00153534,0.0015515,0.00157444,0.00159043,0.00160676,0.00162486,0.00164183,0.00165283,0.00167556,0.00169083,0.0017058,0.00172196,0.00174806,0.0017753,0.00179585,0.00182391,0.00184883,0.00187857,0.00190746,0.00193821,0.00197304,0.00199924,0.00203301,0.00206941,0.00210702,0.00214556,0.00217621,0.00221486,0.00227361,0.00231689,0.00236637,0.00242561,0.00245757,0.00252024,0.00255973,0.00259584,0.00263288,0.00267833,0.00271301,0.00273315,0.00275693,0.00278598,0.00280642,0.00283136,0.00285899,0.00287707,0.00290502,0.00293879,0.00296287,0.00298243,0.00300719,0.00303602,0.00305896,0.00308708,0.00311522,0.00313471,0.00316292,0.00319098,0.00320577,0.00323242,0.00326103,0.00328913,0.00330812,0.00333909,0.00335552,0.00337907,0.00341198,0.0034434,0.0034594,0.00349112,0.00352133,0.00352504,0.00352431,0.00361429,0.00363688,0.00362015,0.00353686,0.00354096,0.00349073,0.00339343,0.00264151,0.000290984,-0.000637198,0.0076084,0.00571727,0.00395925,0.00397608,0.00400439,0.00403889,0.00405193,0.00411272,0.00419939,0.00424382,0.00426239,0.00428452,0.00429607,0.00430777,0.00430745,0.00431678,0.00433528,0.00436148,0.00437536,0.00438897,0.00440771,0.00443114,0.0044618,0.00448767,0.00450327,0.00452113,0.00454764,0.0045675,0.00459994,0.00462356,0.00464864,0.00467326,0.00469795,0.00471559,0.00475136,0.00476887,0.00479195,0.00482348,0.00484299,0.00486371,0.00490003,0.00492739,0.00494954,0.00496872,0.00499264,0.0050267,0.00504965,0.0050753,0.00509869,0.00512624,0.00515278,0.00517126,0.00518903,0.00523932,0.00521248,0.00530843,0.00530936,0.00532647,0.00536123,0.00538772,0.00532867,0.00546812,0.00545872,0.00547694,0.00550272,0.0055391,0.00555995,0.00557252,0.00558248,0.00553327,0.00551351,0.00541046,0.00524469,0.00525794,0.00463015,0.00311177,0.00894644,0.0081491,0.00600022,0.0060232,0.00604441,0.00607007,0.0060646,0.00606798
0.145623,0.145623,0.145623,0.145623,0.145623,0.145623,0.145623,0.145623,0.145623,0.145623,0.145623,0.145623,0.145623,0.145623,0.145623,0.145623,0.145623,0.145512,0.145512,0.145512,0.145512,0.145512,0.145512,0.145512,0.145512,0.145512,0.145512,0.145512,0.145512,0.000393676,0.000409655,0.000420834,0.000426005,0.000402497,0.000384089,0.00051755,0.000591735,0.000628313,0.000652513,0.000665588,0.000695144,0.000713692,0.000731252,0.000747613,0.000776438,0.000816477,0.000850033,0.000878251,0.000916854,0.000946736,0.00096972,0.000991544,0.00100016,0.00100303,0.00100496,0.00100714,0.00100815,0.00101036,0.00101187,0.00101499,0.00101906,0.00101992,0.00101761,0.00101066,0.00101864,0.00104464,0.00103636,0.00103694,0.00104026,0.0010436,0.00104538,0.00105016,0.00105408,0.00105759,0.00106003,0.00106453,0.00106925,0.00107234,0.00107574,0.00108139,0.00108587,0.00108913,0.00109485,0.00109973,0.00110465,0.00111071,0.00111559,0.00112113,0.00112678,0.00113237,0.00113953,0.00114516,0.00115211,0.00115335,0.00116396,0.00117307,0.00118041,0.0011867,0.00119456,0.00120477,0.00121119,0.00122003,0.00123172,0.00123547,0.00124775,0.00125527,0.00125797,0.00127832,0.00129252,0.00130318,0.00131058,0.00132623,0.00135172,0.00138067,0.00140907,0.00142559,0.00143728,0.00145612,0.00147522,0.00149843,0.00151584,0.00153534,0.0015515,0.00157126,0.00159043,0.00160676,0.00162204,0.00164183,0.00165283,0.00167556,0.00169083,0.0017058,0.00172196,0.00174806,0.0017753,0.00179585,0.00182391,0.00184883,0.00187857,0.00190746,0.00193821,0.00197304,0.00199924,0.00203301,0.00206941,0.00210702,0.0021391,0.00217621,0.00221486,0.00227361,0.00231689,0.00236637,0.00242561,0.00245757,0.00252024,0.00255973,0.00259584,0.00263288,0.00267833,0.00270478,0.00273315,0.00275693,0.00278598,0.00280642,0.00283136,0.00285658,0.00287707,0.00290502,0.00293879,0.00296287,0.00298243,0.00300719,0.00303602,0.00305896,0.00308708,0.00311522,0.00313471,0.00316292,0.00319098,0.00320577,0.00323242,0.00326103,0.00328913,0.00330812,0.00333909,0.00335552,0.00337907,0.00341198,0.0034434,0.0034594,0.00347785,0.00352133,0.00352504,0.00352431,0.00361429,0.00363688,0.00362015,0.00353686,0.00353696,0.00349073,0.00339343,0.00264151,0.000290984,-0.000637198,0.0076084,0.00571727,0.00395925,0.00397608,0.00400439,0.00403889,0.00405193,0.00411272,0.00419939,0.00424382,0.00426239,0.00428452,0.00429607,0.00430777,0.00430745,0.00431678,0.00433528,0.00436148,0.00437536,0.00438897,0.00440771,0.00443114,0.0044618,0.00448767,0.00450327,0.00452113,0.00454076,0.0045675,0.00459994,0.00462356,0.00464864,0.00467326,0.00469795,0.00471559,0.00474814,0.00476887,0.00479195,0.00482348,0.00484299,0.00486371,0.00490003,0.004915,0.00494954,0.00496872,0.00499264,0.00502349,0.00504965,0.0050753,0.00509337,0.00512624,0.00515278,0.00517126,0.00518903,0.00523932,0.00521248,0.00527798,0.00530936,0.00532647,0.00536123,0.00538772,0.00532867,0.00546812,0.00545872,0.00547694,0.00550272,0.0055391,0.00555995,0.00556729,0.00558248,0.00553327,0.00552143,0.00541046,0.00524469,0.00525794,0.00463015,0.00311177,0.00894644,0.0081491,0.00600022,0.0060232,0.00604441,0.00607007,0.0060646,0.00606798
