# .PCD v0.7 - Point Cloud Data file format
VERSION 0.7
FIELDS x y z intensity
SIZE 4 4 4 4
TYPE F F F F
COUNT 1 1 1 1
WIDTH 1085
HEIGHT 1
VIEWPOINT 0 0 0 1 0 0 0
POINTS 1085
DATA ascii
-8.5810614 6.6428161 -0.14455156 0.082241133
49.612389 -15.50432 -0.21935804 0.36177987
42.921425 -12.601717 -0.37927607 0.20491914
-4.4452586 6.955945 -0.042684957 0.071407832
178.41803 -70.577576 -0.76908284 0.20590734
171.90918 -66.167259 -0.58603776 0.31832641
18.956509 -2.0509925 -0.34304154 0.038713284
34.606121 -7.5308647 -0.62062615 0.19971518
49.688667 -13.203321 -0.41265008 0.19701606
22.124187 -1.7186525 -0.62341136 0.084030345
15.455405 2.6659167 -0.47044384 0.049122635
178.78331 -66.706299 -0.7700851 0.20806202
24.04105 -0.49528122 -0.60396934 0.055966258
199.41959 -132.75772 0.19975832 0.084184341
180.86168 -66.971733 -0.84400487 0.18117628
175.84067 -64.640808 -0.74913442 0.20976858
190.93425 -70.468315 -0.47422001 0.085797794
184.5238 -67.507545 -0.81169736 0.10688023
-3.8956139 -205.48372 -0.70264417 0.10979453
193.60783 -70.385788 -0.17788467 0.076013178
167.29942 -58.169918 -0.46078068 0.33023474
33.795586 -1.4303019 -0.63976634 0.072386496
13.195837 -212.16641 -0.60428888 0.089045607
190.50349 -67.70015 -0.41411522 0.082966827
37.691505 -1.3387548 -0.58823282 0.079059333
16.409851 -211.46547 -0.63357383 0.066772282
204.31935 -130.70512 2.2560444 0.15955772
165.89532 -55.985783 -0.48013631 0.27349314
181.70853 -61.643059 -0.80096674 0.10451605
-7.6826391 -200.06308 -0.58169502 0.19441387
190.62737 -63.732613 -0.20494749 0.073955029
163.28355 -52.396111 -0.43236592 0.287157
-4.3679409 -198.62112 -0.58613485 0.19267747
192.56665 -65.012787 -0.070585862 0.077388026
199.95531 -124.61291 0.10269797 0.088139437
40.18737 -217.23936 -0.37469083 0.096977025
13.171924 -205.48738 -0.78895724 0.12187882
202.61421 -124.2552 0.52673376 0.13563231
44.013851 -216.97327 -0.32528192 0.103914
37.469856 -214.74306 -0.48535186 0.10591867
192.12012 -62.428474 -0.0072204792 0.072823659
46.229862 -217.60422 -0.30450115 0.098646224
160.65831 -46.326595 -0.58822191 0.22245081
13.545863 -202.62943 -0.78619993 0.18451467
49.33255 -217.38693 -0.33477893 0.093982518
43.620167 -214.89507 -0.4377729 0.11801919
16.642324 -202.50006 -0.78110605 0.19740856
10.228713 -199.07759 -0.53415757 0.2092316
186.99963 -55.213234 -0.15383226 0.077476613
61.951912 -219.7691 -0.11893264 0.15603335
14.039574 -199.84775 -0.76582456 0.19359277
28.433336 -205.45276 -0.77793831 0.1269085
163.69875 -43.49403 -0.71279037 0.21792674
16.261583 -199.41295 -0.78191876 0.20766306
52.727707 -214.46732 -0.4446148 0.097400323
67.298859 -220.12384 -0.071098074 0.22259392
61.3424 -217.38327 -0.26781785 0.096978173
154.79463 -37.372978 -0.77725816 0.19412978
49.541496 -211.49478 -0.60482609 0.093640447
184.10574 -50.031223 -0.11541945 0.08214315
178.51129 -46.047207 -0.43059462 0.074282601
73.137154 -219.76741 -0.095453724 0.07427536
68.492912 -217.13808 -0.23138846 0.098156996
160.70671 -37.596355 -0.85870177 0.19314243
77.202194 -219.28885 -0.081227511 0.075869456
49.768143 -208.78033 -0.72285324 0.10608362
183.20461 -46.873646 -0.06579347 0.07122314
59.743046 -212.16306 -0.53583336 0.13143294
205.58568 -112.56223 1.2444587 0.25376162
200.79057 -109.33466 0.032484442 0.084820673
180.92967 -44.083569 -0.10005683 0.076676428
207.33534 -112.61124 2.3236732 0.17489164
202.11894 -109.26464 0.21743949 0.078261256
43.672176 -202.70709 -0.90959722 0.16707681
58.379444 -208.64159 -0.67965311 0.12514466
205.67282 -108.4822 1.1055908 0.35310122
87.309303 -219.09126 -0.0069515528 0.083007812
61.333866 -207.9734 -0.72987723 0.10072819
76.746841 -214.66785 -0.354314 0.085866839
50.526947 -203.33124 -0.86734414 0.12604252
44.565002 -198.77641 -1.0939325 0.22986712
58.964424 -205.65231 -0.8155902 0.14096591
52.310848 -202.83339 -0.88357848 0.13813777
68.755798 -207.43318 -0.74246454 0.13505021
40.471893 -195.37245 -0.74134254 0.30693445
76.188972 -211.53152 -0.53121597 0.083514221
70.318901 -208.34001 -0.69771343 0.10727858
43.297428 -195.64273 -0.77111381 0.29703519
-203.77135 -149.79414 0.029328108 0.055153985
73.185921 -208.78375 -0.66701543 0.084260866
68.028038 -205.79701 -0.81545621 0.14609623
-31.602135 -221.59003 0.53916276 0.22586377
56.020134 -199.15404 -1.0542135 0.18779151
70.357773 -205.36446 -0.82006115 0.11664466
-208.61075 -86.714104 -0.21408336 0.045864243
-194.66841 -92.570129 -1.0096875 0.17483747
53.30687 -196.26567 -1.1017927 0.25805053
67.75209 -202.64604 -0.94950134 0.14600097
55.619915 -195.78818 -0.9019655 0.23409238
-211.9183 -140.07774 0.93656665 0.19246949
74.63665 -202.37889 -0.98863238 0.092286997
-206.63716 -83.675446 -0.38198629 0.081009783
-206.98062 -140.27679 0.001105967 0.084472656
-214.21358 -133.40385 1.377206 0.28488451
-210.94417 -134.05157 0.29453075 0.066083148
-7.2894001 -221.48927 0.42134458 0.39627758
-214.37347 -131.36153 1.1796007 0.33209288
173.03839 -60.211903 -0.7406311 0.18344641
172.93958 -55.602966 -0.72896719 0.21274002
34.346786 -220.59216 -0.12440843 0.12633964
46.563278 -13.395214 -0.38831538 0.12065598
35.087921 -214.1955 -0.50946218 0.12133566
13.848183 -208.35141 -0.75109947 0.10935622
37.965538 -220.17442 -0.15523435 0.19042087
49.588371 -10.265303 -0.5249095 0.21296234
172.58008 -52.482357 -0.79231048 0.20724781
178.66422 -55.581776 -0.80085564 0.11221775
16.344963 -208.61072 -0.73839235 0.11314934
181.6042 -58.728638 -0.73085636 0.10701081
76.656013 -15.770547 -0.20378396 0.31923649
16.42716 -214.60532 -0.49075991 0.092784166
27.32025 -5.6470666 -0.67289209 0.13186766
35.880684 -212.7516 -0.56837547 0.13375175
37.39452 -211.61301 -0.61348534 0.099515013
25.040781 -7.5642595 -0.57085586 0.21269526
76.632889 -10.404417 -0.5050208 0.18021011
31.531256 -208.64624 -0.40634775 0.058438241
12.575169 6.7504997 -0.17500952 0.077270508
55.745117 -13.483464 -0.35161483 0.17149523
52.300396 -13.012518 -0.43100107 0.20730937
28.562342 -7.7116475 -0.62942934 0.1869328
181.38693 -52.421677 -0.50955355 0.079391591
50.332417 -214.68118 -0.44458511 0.09564025
34.294315 -208.44438 -0.70312357 0.10683426
37.317089 -208.03978 -0.73456919 0.10205651
51.541019 -15.280869 -0.18129958 0.38593596
181.20134 -48.451466 -0.35023534 0.093355179
205.19373 -117.17515 1.3211949 0.34596667
134.55766 -27.229406 -0.52127725 0.35332185
157.67151 -37.501163 -0.79481399 0.21152195
-181.39629 -193.04218 3.0290132 0.1469184
205.42406 -115.50648 1.2335309 0.32748479
-216.56703 -122.55473 2.4676309 0.041214205
16.391153 -221.07455 0.35311905 0.38185444
19.434338 -221.02664 0.292824 0.28705868
-216.326 -112.43198 1.2961861 0.38899276
-212.25555 -113.28156 0.094350941 0.074819691
-213.39116 -77.674873 1.2222993 0.39318964
-147.1591 -204.77264 -0.23596787 0.063720256
-124.40987 -213.60413 -0.072938904 0.0645101
-120.58883 -213.8237 -0.13657023 0.049798451
-126.24125 -211.71536 -0.24079506 0.063570336
-133.57253 -208.50389 -0.36466038 0.076712012
-160.51067 -196.93312 -0.31728709 0.077417403
-124.34737 -211.68803 -0.2854296 0.069220267
-109.49733 -216.49185 -0.057440557 0.06441173
-136.32735 -205.77388 -0.51846945 0.075654276
-121.33846 -212.41121 -0.27849475 0.049043223
-127.49648 -208.5881 -0.51579368 0.068995044
-133.61888 -206.32449 -0.55318826 0.072914198
181.08163 -177.5712 2.361269 0.15877837
176.29675 -174.98665 0.069526635 0.094913691
179.33961 -119.02905 -0.63223583 0.19773582
-114.63632 -211.98183 -0.44324327 0.0788913
187.36165 -121.59001 -0.80764431 0.19487482
-126.69484 -205.27803 -0.74422181 0.10779744
-132.55994 -202.05818 -0.78807288 0.14946212
191.62459 -120.96946 -0.30165496 0.03356114
184.50562 -118.63652 -0.71689171 0.19823298
-109.63905 -212.13855 -0.53940541 0.083928853
193.625 -121.23827 -0.59429568 0.086704142
-44.011425 -18.188566 -0.33041662 0.57302707
-105.14806 -212.39969 -0.54687983 0.08031068
196.50296 -121.66335 -0.33373454 0.092803016
189.74994 -118.43019 -0.80947971 0.059740897
-103.43369 -211.66362 -0.59414387 0.075038701
-88.617332 -217.08667 -0.12751865 0.067846596
-36.441597 -18.209442 -0.26685196 0.45633546
179.47142 -170.10992 0.043961391 0.097548828
182.29189 -111.94219 -0.75822181 0.19729282
-34.3778 -18.157986 -0.25659183 0.40782869
181.7536 -168.79434 0.11544902 0.10116329
184.70995 -112.64595 -0.73878402 0.19167836
-52.325317 -10.522513 -0.78302616 0.1037588
193.51898 -115.26293 -0.68635094 0.090412907
187.60478 -112.642 -0.80909777 0.20721914
181.88049 -109.67285 -0.7683019 0.10584479
-34.475876 -15.614068 -0.47516921 0.15285967
189.62016 -111.32397 -0.86359298 0.16393574
-24.822887 -18.212828 -0.17255893 0.37674123
-31.938614 -15.74568 -0.47630104 0.15033108
193.46771 -112.17244 -0.70736289 0.10781498
-22.791901 -18.108482 -0.17563918 0.38446516
-27.603121 -15.861359 -0.47235459 0.14329994
-55.491692 -4.1333437 -0.69328701 0.11823742
190.6698 -108.79345 -0.84037161 0.14249694
-25.626465 -16.641098 -0.42206398 0.20688424
-52.3148 -4.9126654 -0.7286827 0.12617119
-38.721123 -9.7938881 -0.75313163 0.14974757
187.63461 -106.67306 -0.80327839 0.20242938
-50.541462 -5.5924349 -0.75625843 0.10973611
-13.346114 -18.175936 -0.068443567 0.34526134
190.3777 -106.52872 -0.85262364 0.13537803
-46.105919 -4.5478935 -0.73869199 0.11656573
-52.906307 -1.3084488 -0.57536471 0.086180195
-16.015835 -16.092415 -0.26679263 0.20234375
-43.651428 -4.3690953 -0.73451382 0.12086965
-28.801165 -10.204394 -0.62706071 0.13680685
187.63509 -160.63557 0.14966786 0.099614233
-54.832806 -217.09702 -0.22199354 0.066917524
-3.7474046 -18.176414 -0.10767171 0.27954102
199.26178 -106.64018 -0.16292535 0.085311241
-52.596462 -217.39201 -0.1782158 0.07108552
-22.383623 -10.306887 -0.6299023 0.14909625
181.64253 -97.491829 -0.73739308 0.2008736
188.35976 -157.68303 0.076265819 0.09319184
190.51541 -100.58041 -0.80933625 0.14306246
-60.970573 -212.4062 -0.60105348 0.093900934
199.42918 -102.95807 -0.18209583 0.080095753
193.07048 -100.55597 -0.72468352 0.1021402
-1.6474264 -16.955288 -0.13654077 0.24161397
-43.54789 -217.40829 -0.20013416 0.069292612
196.54959 -100.54891 -0.49056545 0.08463987
189.50833 -97.060356 -0.83627427 0.10540982
-60.878868 -208.41458 -0.72693896 0.15290791
190.57333 -154.50874 0.14055842 0.098154865
-52.116341 -211.38036 -0.61527151 0.081016682
-37.617104 -217.37395 -0.24320425 0.07330513
-43.53503 -214.55821 -0.42680579 0.08297842
-28.563148 -219.86302 -0.09463802 0.063461304
190.48575 -94.120224 -0.79246235 0.13499729
195.92197 -154.12054 2.1605506 0.22119752
198.13269 -96.55085 -0.28846976 0.087625258
193.26595 -93.504395 -0.66421229 0.094496638
-37.542267 -214.38104 -0.46205765 0.080921397
-22.490803 -219.81097 -0.08518701 0.073621295
196.63818 -94.185059 -0.41299489 0.086784028
-55.14259 -205.0356 -0.75718319 0.18404926
196.01512 -151.30367 1.4593245 0.26089957
199.06743 -94.43206 -0.15322176 0.075005487
-52.664825 -205.40021 -0.77359074 0.17547627
198.04514 -150.07401 2.3130779 0.17272949
193.30429 -147.7908 0.13482437 0.091319077
196.53191 -91.667007 -0.37780523 0.082557127
-13.687572 -220.4187 -0.084657721 0.081217445
184.89592 -85.615715 -0.75008595 0.21616104
-25.295525 -214.69177 -0.47426674 0.089635536
-9.2787781 -220.09346 -0.10783695 0.075930417
198.17638 -147.70065 2.2002189 0.017352823
193.84515 -145.62944 0.11076104 0.093772747
-28.594187 -211.46149 -0.63901114 0.088482805
-13.587954 -217.35669 -0.29484937 0.086107954
185.1671 -81.487389 -0.77536148 0.20789111
-4.6124802 -220.46674 -0.084923215 0.071850918
-31.537706 -208.30081 -0.74118626 0.13594498
198.8326 -145.06757 1.5184013 0.23311655
35.872833 -16.071268 -0.22564745 0.35756138
196.57211 -85.556732 -0.29927406 0.085965768
190.78941 -82.713715 -0.71241063 0.11222541
-5.7101984 2.2001076 -0.49274075 0.08947555
178.31393 -76.423752 -0.72008944 0.19469513
173.85104 -72.191833 -0.52238208 0.36481935
19.665129 -7.5911736 -0.57297671 0.19772327
13.356089 -4.6758833 -0.66942751 0.13376528
174.84662 -72.503761 -0.83853811 0.22213416
1.4515948 1.7083259 -0.4956454 0.079897128
16.444826 -5.8975105 -0.6621474 0.10878012
178.64331 -72.865227 -0.78065932 0.20664309
3.7099266 1.4649944 -0.52378076 0.084371485
40.523586 -13.187984 -0.34874591 0.1732879
-79.036453 -18.287439 0.041710675 0.19598679
7.7306967 1.238634 -0.4601801 0.085571289
22.545923 -4.5468926 -0.6799413 0.13033801
-77.609528 -18.739491 0.24312335 0.012939453
31.678425 -7.5530105 -0.63718039 0.21509989
25.018797 -5.0195107 -0.685444 0.12993897
-1.3604388 6.8124685 -0.099229537 0.072517313
13.283822 1.4736156 -0.51996017 0.072531424
7.5701165 4.4178014 -0.27432039 0.06101381
1.1214496 7.0526013 -0.10958403 0.078361161
-76.794403 -17.946266 0.14295101 0.0068359375
31.567572 -4.6388063 -0.71011889 0.12292459
4.6672273 6.8446999 -0.044449646 0.064144358
186.90773 -70.826584 -0.76448792 0.10166132
34.097546 -4.6002016 -0.7209059 0.11954538
28.326418 -1.5654006 -0.57609499 0.091463603
169.63551 -62.006283 -0.47846097 0.30239558
58.487328 -13.190707 -0.36020553 0.17016876
178.71422 -64.597603 -0.78317231 0.22365424
67.543983 -16.152935 -0.2436191 0.31623015
61.344486 -12.854671 -0.36679116 0.18110251
-57.886887 -18.253088 0.1338142 0.39733666
195.08151 -70.198441 -0.0075591402 0.073338769
168.44623 -58.93515 -0.6440708 0.2744875
16.237144 6.4416132 -0.016093245 0.058356583
177.94611 -60.409359 -0.84611195 0.20752734
193.08087 -67.746033 -0.13136941 0.077230632
61.52726 -10.242954 -0.49353209 0.20140734
55.328304 -7.4538746 -0.67721623 0.1871922
35.52393 -216.30971 -0.40994087 0.10850702
169.44542 -55.494694 -0.72821063 0.20437096
79.410675 -15.39183 -0.22801562 0.3452822
37.613144 -217.48407 -0.35694134 0.092828974
67.662788 -10.306033 -0.56197512 0.20090978
187.61249 -61.16922 -0.3948409 0.079450265
161.21089 -50.091789 -0.42984679 0.3272239
175.48964 -55.670738 -0.83915347 0.17328782
190.24733 -61.771767 -0.14259471 0.072548978
184.42102 -58.398457 -0.53045732 0.09015514
157.97511 -46.301125 -0.37322351 0.32188269
88.157181 -15.328533 -0.3121306 0.34838867
200.31815 -121.55341 0.097369999 0.084376313
54.436092 -0.38238764 -0.60006464 0.063683204
55.577866 -220.22063 -0.10201325 0.18706313
202.63202 -121.6815 0.387198 0.086670436
184.43962 -55.140755 -0.40807733 0.081461713
58.050434 -219.96687 -0.12637483 0.11766084
52.641891 -216.88902 -0.32626727 0.094001897
166.75853 -45.963692 -0.73240215 0.21710092
160.78392 -43.578716 -0.64717323 0.20317423
55.56562 -217.52621 -0.2946676 0.09986037
202.20587 -117.44888 0.27587166 0.079954565
143.91737 -33.043415 -0.53812325 0.33759767
59.094013 -216.37231 -0.31407246 0.092616104
172.45662 -46.669502 -0.78892428 0.10201605
200.645 -115.75105 0.044504046 0.078545727
160.6705 -39.892017 -0.79742247 0.20221893
112.28936 -18.368952 -0.39510208 0.3570267
70.586006 -220.00417 -0.081207134 0.10167649
162.92003 -39.732605 -0.86790562 0.19354297
135.44154 -27.568867 -0.56241077 0.34297854
172.64212 -43.50386 -0.67190212 0.089263916
200.65216 -113.36189 0.027016673 0.088548452
139.04263 -29.115414 -0.62626326 0.23716906
207.06602 -115.38974 2.5129168 0.24731445
70.639465 -217.43558 -0.22108583 0.090916604
163.54585 -37.490513 -0.86518276 0.1318121
80.022934 -219.53233 -0.038076259 0.24607661
172.7729 -39.966042 -0.56243408 0.065254651
166.79126 -37.370705 -0.73764932 0.099107608
159.21638 -33.682152 -0.87992126 0.12861875
175.26924 -39.904377 -0.37289122 0.07939107
169.61797 -37.510368 -0.61993772 0.074046291
64.150436 -211.62781 -0.54138613 0.10174318
79.355202 -217.38304 -0.18247208 0.093091518
172.52939 -37.040607 -0.40184107 0.082948789
200.7887 -106.58389 0.02968912 0.089485265
82.269524 -217.55119 -0.1619848 0.094294086
175.619 -37.399265 -0.17782354 0.075585462
70.471436 -211.70598 -0.52112734 0.088880941
64.226791 -208.55722 -0.69445831 0.10478736
79.382431 -214.62975 -0.34754735 0.097326711
73.377075 -211.25124 -0.54086131 0.080771208
88.336067 -217.47884 -0.1156965 0.098425515
61.432289 -205.60225 -0.81307989 0.12629808
207.60799 -106.49379 2.4648693 0.11358868
92.785843 -217.20012 -0.10127448 0.095048733
65.390839 -204.61681 -0.87473077 0.10038659
-34.060879 -221.55154 0.47531411 0.25436825
94.451645 -217.2001 -0.075280391 0.10321674
88.398567 -214.35135 -0.33602345 0.10424531
61.357365 -202.78098 -0.91620219 0.14253269
77.168648 -208.02722 -0.72235298 0.097051926
91.864761 -214.24043 -0.30607963 0.11155938
-27.937645 -221.85205 0.46125698 0.28299585
-34.831783 -218.924 0.0072862706 0.052978516
73.510986 -204.30692 -0.90408748 0.1338041
88.668686 -211.50908 -0.53307527 0.096151181
-191.62526 -92.501167 -0.83165616 0.29569128
76.507576 -205.59674 -0.84940004 0.14235535
-22.177416 -221.80713 0.43255883 0.35298508
-208.11131 -83.834839 -0.22721566 0.059716124
-194.6734 -89.47065 -0.97516572 0.096588671
94.517006 -211.53798 -0.4567436 0.11426417
-213.48813 -136.58138 1.3189653 0.27638575
-15.466253 -221.73338 0.41065386 0.37080562
-208.16792 -80.418495 -0.1156316 0.067619346
-199.14482 -83.877167 -0.87481594 0.17349829
67.554718 -195.96906 -0.93039 0.30767122
-191.81422 -86.391586 -1.0273411 0.08811257
70.595253 -196.39668 -1.0236826 0.23638584
85.587433 -202.63501 -1.0062207 0.15069613
-46.740757 -203.61505 0.068203777 0.0034179688
-211.36044 -130.52179 0.25363496 0.067697078
-209.6723 -130.53879 0.045363739 0.079187885
163.84251 -49.544411 -0.65986168 0.19853684
58.626022 -7.6202745 -0.65374607 0.18811452
-55.67561 -18.231199 0.11583167 0.51724553
163.62935 -46.021465 -0.68151212 0.21308108
187.64561 -58.582256 -0.2422787 0.084275074
166.68675 -52.354115 -0.67832655 0.19541582
100.86773 -16.332659 -0.47554767 0.33103907
37.207397 -5.77741 -0.71613568 0.12951231
82.475151 -10.234831 -0.53958052 0.19816603
189.65558 -59.028358 -0.056301333 0.079997607
169.77414 -52.264133 -0.69867826 0.20440502
40.405003 -1.7846885 -0.65125155 0.088332668
186.60405 -53.068302 -0.061652314 0.07317619
168.7616 -46.101677 -0.8282339 0.20632054
-210.60789 -122.25992 -0.12706454 0.07266809
204.90498 -121.63598 1.357388 0.34412861
66.280067 -7.1193495 -0.70541632 0.20026498
46.741833 -1.5545218 -0.60695398 0.089026906
64.022133 -10.063025 -0.484339 0.20141688
63.661247 -12.601038 -0.34983492 0.13135231
40.578442 -4.473177 -0.73420519 0.11416133
202.23663 -115.62968 0.26513535 0.07935185
-208.72635 -122.02495 -0.31194657 0.077380247
151.70267 -34.313911 -0.77997833 0.20301461
90.053291 -192.15607 -1.1426463 0.3972168
118.63882 -20.104567 -0.36865526 0.30853975
142.91971 -28.093136 -0.74060059 0.18241826
141.76389 -31.313671 -0.58723778 0.32767335
165.19356 -39.902641 -0.88198775 0.13557994
65.804939 -16.444832 -0.21170257 0.31351411
60.940685 -15.557628 -0.17914078 0.35308924
139.52744 -24.892759 -0.75998789 0.20644346
84.68528 -219.36865 -0.028578434 0.10064453
145.72226 -28.422104 -0.75177366 0.2039963
202.16429 -112.45423 0.23477477 0.072860546
14.550625 -221.10663 0.38152882 0.41233155
88.666801 -192.64551 -1.2672852 0.32846785
113.76058 -201.16609 -0.91159225 0.09130735
-27.435446 -193.47304 0.0026926398 0.37963867
-213.56429 -113.42711 0.27111235 0.065243244
40.425922 -220.60703 0.26922452 0.24006239
43.402565 -220.58148 0.29994407 0.15944356
151.4772 -175.87474 -0.95082927 0.20671037
-150.89851 -204.69943 -0.083791845 0.064496987
-127.38241 -213.3808 -0.029444775 0.072221272
175.36401 -181.50113 0.94284755 0.32677522
-151.09416 -202.77902 -0.25335461 0.065927029
177.9581 -180.56238 2.1560485 0.08117532
172.94556 -179.17267 0.08374358 0.10096062
-111.5175 -216.3013 -0.039581966 0.058393296
-139.1041 -205.45175 -0.46963543 0.072993584
175.54668 -178.71368 0.37673232 0.1303571
198.14667 -129.53247 -0.021198448 0.08970014
-115.30608 -214.25508 -0.16266921 0.059671614
178.3914 -178.57614 1.15197 0.23817413
-106.06255 -216.72063 -0.091060124 0.062782623
-111.73473 -214.93338 -0.19047044 0.059883557
189.45947 -123.35903 -0.79969084 0.13155995
184.96043 -121.37629 -0.72804892 0.21056019
198.28604 -126.23415 -0.078372061 0.085419625
194.21541 -124.33984 -0.52132809 0.098893166
-64.575645 -13.706783 -0.80455875 0.059088767
-106.19893 -214.70308 -0.31367716 0.061263949
-112.68961 -211.56578 -0.4976221 0.070232555
-62.158203 -12.881557 -0.81300282 0.037382159
-46.377628 -18.234413 -0.33350259 0.54601842
198.59779 -124.54771 -0.072587363 0.083093122
-58.729492 -13.319062 -0.74417549 0.022621468
-64.358398 -10.493617 -0.80748171 0.086544074
181.72438 -115.49262 -0.72160178 0.17499575
-55.232838 -13.310323 -0.76272547 0.022906387
-61.48595 -10.315766 -0.82168144 0.03530056
185.24254 -114.7315 -0.75737071 0.19870067
198.81766 -121.42449 -0.089603841 0.087390147
-59.644093 -9.4089069 -0.81536901 0.019939542
187.55055 -115.55554 -0.81485891 0.21514748
-50.490742 -12.179133 -0.77719164 0.1352039
-55.488605 -10.47602 -0.77684534 0.021217767
190.43269 -115.50652 -0.82297117 0.13266611
-46.46328 -13.117297 -0.73469055 0.14231257
-73.809662 -1.427738 -0.57960385 0.098710366
-37.380405 -15.360681 -0.47553289 0.15029535
-43.219723 -13.037827 -0.72617012 0.13932699
-50.221062 -10.267269 -0.78419197 0.13365695
-55.34708 -7.5445347 -0.77396989 0.035474561
-41.185112 -13.057002 -0.72242874 0.13763681
-46.297382 -10.457367 -0.76749754 0.13586238
-52.513405 -7.6217198 -0.77380496 0.11047616
-37.550266 -13.244948 -0.54003322 0.14384969
-43.399353 -10.423296 -0.76121807 0.1387409
-49.940533 -7.6745896 -0.77785599 0.14124142
-76.315643 4.6424155 -0.25683695 0.094343446
-40.414478 -10.347865 -0.75623184 0.13834324
-47.659958 -7.5507865 -0.78227746 0.17108281
-73.251404 4.344739 -0.26277813 0.09079849
-58.725906 -1.7867727 -0.57124609 0.083346695
-22.36245 -16.079762 -0.38407582 0.20724782
-71.525581 3.9884946 -0.27211782 0.079388238
-34.445206 -10.400215 -0.63140768 0.14580078
-20.544882 -15.526443 -0.41897345 0.2194057
-67.390366 4.4069066 -0.23604526 0.087347582
-74.019852 6.7493896 -0.097628012 0.14324623
-38.126801 -8.2248106 -0.76687074 0.15254752
-64.218185 4.5439177 -0.21743387 0.097428903
-50.74102 -1.081619 -0.57283598 0.11502958
196.56244 -106.48599 -0.47679409 0.079895057
190.31799 -102.86146 -0.82641649 0.1301876
-25.579212 -10.633852 -0.61282921 0.14309233
179.44951 -96.927834 -0.73329049 0.20719866
193.40623 -103.43451 -0.71297228 0.10815822
-43.620365 -1.3162501 -0.61868155 0.089743979
-6.041646 -16.197783 -0.20520344 0.20703125
197.13475 -102.42241 -0.44718704 0.10344701
-19.536957 -10.376894 -0.63363594 0.15750976
-39.359913 -219.32047 -0.077501431 0.069937363
179.52577 -94.447777 -0.71704108 0.21030496
-17.360329 -9.7658234 -0.64776927 0.138228
-22.294077 -7.5218801 -0.69195968 0.11780337
192.80859 -157.28595 1.3391969 0.205643
176.95557 -90.455948 -0.76897359 0.2097168
0.30354655 -16.210463 -0.12890235 0.10882568
-40.109619 -217.13002 -0.27367294 0.068108439
199.39767 -100.63496 -0.17660935 0.080257647
-30.925835 -219.94232 -0.099771492 0.066685952
187.57898 -94.541847 -0.77155882 0.20828378
193.79605 -154.58342 0.96699655 0.33969045
197.84315 -96.275612 -0.31634584 0.10112913
1.2142392 -13.168357 -0.30824515 0.22134911
184.76164 -91.582848 -0.68752187 0.2048783
178.56116 -88.98558 -0.74849021 0.19831453
4.5827436 -13.629712 -0.12403105 0.20290427
187.54063 -91.720291 -0.76942909 0.20185007
194.27193 -152.02846 0.66308123 0.21562874
174.94803 -84.018257 -0.86715627 0.20751953
-33.943829 -215.27782 -0.46250218 0.057541944
185.11632 -87.752762 -0.7429058 0.20710883
178.9093 -84.831375 -0.78722674 0.16489258
-31.567192 -214.39352 -0.49984241 0.085172273
187.09413 -88.262726 -0.82164758 0.20373008
181.86513 -85.490189 -0.75352997 0.18682215
175.10872 -83.548004 -0.85179585 0.21223958
189.44827 -87.519806 -0.81519789 0.1306325
16.592056 -13.447524 -0.15735155 0.15940019
198.98456 -91.611389 -0.11533133 0.080799729
193.46069 -88.418694 -0.57623363 0.098075397
187.3961 -85.64682 -0.83834624 0.17189725
182.21269 -81.923744 -0.72046065 0.18737434
-7.4149995 -220.20233 -0.098014332 0.069894671
190.40155 -85.538864 -0.77196699 0.10895326
16.579472 -10.255294 -0.33844113 0.19430196
198.5318 -87.379768 -0.12346056 0.080364153
-10.021173 -217.12907 -0.30698803 0.080115639
187.20079 -82.490532 -0.83660966 0.15109418
13.639358 -7.6399393 -0.54867834 0.19646271
174.27568 -76.49382 -0.4579064 0.36139575
22.699528 -10.060677 -0.32325849 0.2005935
-139.20525 0.46608078 1.0298154 0.24084596
31.504015 -13.169453 -0.3078272 0.18785682
24.538706 -9.6725702 -0.36117256 0.21100193
-1.3593116 1.4084321 -0.48808417 0.088329971
-7.7408004 4.1537938 -0.35059842 0.06697157
28.647743 -10.439646 -0.4169544 0.21673875
-133.52104 2.3447065 0.79412651 0.2051166
-4.3007283 4.4644656 -0.23970979 0.057703353
31.66271 -10.251246 -0.43530631 0.21350062
-130.89758 2.3350263 0.4072215 0.25866809
19.572084 -4.6321583 -0.6617431 0.12091871
-210.68567 -124.29012 -0.089140885 0.083279401
-86.839142 -17.445206 0.3373903 0.0034179688
1.6297336 4.5140958 -0.31558639 0.072610088
-208.46674 -124.48837 -0.30774885 0.077337883
10.682461 1.5321109 -0.48609903 0.079068922
3.6593101 3.9455168 -0.37130085 0.057916183
-135.31902 6.1643291 1.71175 0.024613814
-191.0163 -131.12703 -0.79592681 0.22798979
-127.408 4.6453347 0.9712075 0.13389798
-69.178986 -18.297682 0.050663918 0.37036133
-188.08398 -131.43901 -0.7857666 0.21139526
10.618891 4.5965471 -0.30811933 0.067585461
-67.924011 -18.346464 0.043417025 0.36832204
40.659073 -7.589138 -0.65085196 0.19848108
13.389256 4.2452478 -0.3609072 0.058399994
7.6779137 6.8729739 -0.10097916 0.070919871
43.715309 -7.4543424 -0.64605427 0.20870037
16.568409 4.470294 -0.17533454 0.051705379
52.493385 -10.335662 -0.52100986 0.20980287
45.793736 -7.3413825 -0.65224189 0.21098486
19.616877 4.582212 -0.22348301 0.065640539
-120.18926 6.208776 1.3691536 0.022248641
175.94838 -60.268284 -0.75443691 0.21334849
43.572208 -4.6550279 -0.74270755 0.1313186
-118.45422 6.3626132 1.590573 0.034757696
74.806381 -16.065323 -0.24551474 0.3293457
172.54095 -58.527699 -0.72765392 0.19281217
19.798067 6.7006755 -0.057239335 0.067734137
34.246498 1.6221124 -0.46729368 0.066830002
175.62428 -58.562042 -0.77325869 0.21026073
43.210529 -1.2328031 -0.64767581 0.073546365
36.458103 2.6180828 -0.40508184 0.053587496
178.06943 -58.41222 -0.8544426 0.15912227
24.039591 6.1718993 -0.16162375 0.05826823
83.570091 -15.527952 -0.2811785 0.32424378
76.483963 -13.015008 -0.41895995 0.16224644
70.58033 -10.230974 -0.55322522 0.1976411
85.595497 -15.393214 -0.2770896 0.33466333
79.512589 -13.046296 -0.40645218 0.15007053
73.37532 -10.031045 -0.55278325 0.19006673
45.708534 2.1461711 -0.44638968 0.054431889
166.79547 -49.444317 -0.66995507 0.20538379
33.660526 6.3713055 -0.031502686 0.080078125
175.0307 -52.154972 -0.846968 0.1320118
169.62225 -49.592972 -0.73536539 0.21327703
79.601318 -10.421715 -0.52405906 0.20407298
178.56834 -52.579033 -0.70642918 0.10066462
172.43175 -49.679443 -0.83856887 0.15237109
61.281967 -1.2633483 -0.6131205 0.072812445
96.772087 -15.707179 -0.34735045 0.30591559
175.47113 -49.268963 -0.76683319 0.10966916
148.09639 -36.285191 -0.57884032 0.37489766
79.698051 -7.5215368 -0.70959234 0.18711606
179.10252 -48.278759 -0.52197337 0.079922177
150.93379 -38.089165 -0.66612512 0.25655624
166.57256 -43.665157 -0.80504632 0.19304185
140.26469 -30.465372 -0.52321666 0.31319368
91.549049 -10.131353 -0.65225899 0.19418028
169.46452 -43.461937 -0.8190735 0.11672082
120.8913 -21.027796 -0.32503864 0.37145996
116.34361 -19.404745 -0.33909521 0.30196896
131.33797 -25.409105 -0.58300912 0.27119267
145.58737 -30.331186 -0.74756104 0.20149167
97.662094 -10.366069 -0.69105285 0.20831874
175.45573 -43.259624 -0.495702 0.079492576
169.71274 -40.625549 -0.74382144 0.11242135
120.93231 -20.146044 -0.40954566 0.31315517
178.55252 -43.402367 -0.2602782 0.083129004
151.61566 -31.436075 -0.80473822 0.22056721
124.06112 -18.505451 -0.57261282 0.17539103
117.3083 -15.344104 -0.62353522 0.18147834
154.66409 -31.708916 -0.86422765 0.1956102
148.58475 -28.297453 -0.80879009 0.23599859
163.79205 -34.77739 -0.79170984 0.11390444
177.58311 -40.135864 -0.19423901 0.072435781
150.7883 -28.108761 -0.89008433 0.18351136
166.59341 -34.181202 -0.6369797 0.061643429
180.13904 -41.850021 -0.0057553495 0.089904785
154.58008 -28.498243 -0.85396606 0.10751698
202.34758 -106.55444 0.24826878 0.075203143
85.489235 -217.20569 -0.15504999 0.09664382
177.56992 -38.280041 -0.069745451 0.078091368
205.81909 -106.59882 1.2003046 0.32795215
200.76389 -103.51028 0.032749746 0.082085505
83.107613 -214.63641 -0.33681017 0.11148741
174.83739 -35.159313 -0.076951675 0.084719077
201.55823 -102.33563 0.088591039 0.074073419
85.457542 -214.46211 -0.33692485 0.095471121
36.222939 -194.94952 -0.53527194 0.34669846
205.82669 -103.5789 1.2514274 0.28582337
200.92294 -101.0965 0.0098617245 0.084195092
83.850349 -212.31996 -0.49126309 0.11944473
97.660706 -216.77473 -0.058102153 0.097389221
202.19644 -100.57876 0.18656543 0.079353891
64.270218 -202.49808 -0.91934311 0.14838506
59.187759 -200.87875 -1.0149181 0.156303
94.438721 -214.46663 -0.2566433 0.097404927
200.83003 -97.691193 0.030490316 0.087341979
61.803352 -199.86382 -1.0581859 0.16146198
97.274475 -214.24883 -0.23376621 0.103629
70.418015 -202.64456 -0.92743516 0.11181458
65.503159 -199.17171 -1.0836159 0.16960411
58.447128 -195.58698 -0.84825999 0.26423672
205.67958 -97.618294 1.2017987 0.28991845
68.35759 -199.70764 -1.0991037 0.16779242
-191.21272 -89.651413 -0.85028756 0.29883596
76.552849 -202.56265 -0.97874111 0.12663871
-202.25812 -83.256096 -0.27604577 0.027774304
64.369362 -195.95381 -0.95909065 0.30403599
-194.48465 -86.485306 -0.97112215 0.15526068
-208.57169 -137.39879 0.084274165 0.071253739
88.176628 -205.41428 -0.89042491 0.13915363
-10.566714 -221.53632 0.37623522 0.26513049
92.11985 -205.45888 -0.80567318 0.13002771
107.02462 -211.94565 -0.29916805 0.12413596
-198.3183 -80.75666 -0.8758148 0.16370414
-4.6080799 -221.38138 0.39898726 0.32462505
-0.5171181 -221.32495 0.33437353 0.3936916
1.4240891 -221.26154 0.31397083 0.3748678
-214.78693 -127.64761 1.0938119 0.36142686
110.7978 -18.045269 -0.45008993 0.34872001
153.99734 -40.904819 -0.69590139 0.25138494
155.69576 -43.891605 -0.39851162 0.335538
49.19733 -2.2391653 -0.20748086 0.015392539
70.295654 -1.7512975 -0.62852949 0.084085017
157.64143 -40.000374 -0.77389234 0.20729877
157.00226 -44.083282 -0.4779647 0.2893464
52.273769 -1.8533983 -0.6679045 0.087512411
154.49722 -34.002522 -0.80928624 0.20462237
67.524223 -13.071158 -0.45259765 0.1891018
93.389847 -9.3096209 -0.72071362 0.18813179
97.612679 -13.138744 -0.62404549 0.20107545
75.540222 -7.4657474 -0.7258659 0.19708119
-36.430954 -18.215492 0.23114793 0.5201416
130.55695 -21.934509 -0.69246358 0.17914699
72.537567 -12.643454 -0.49746284 0.19510579
70.618935 -13.000039 -0.47682235 0.18712713
156.90155 -33.69595 -0.86100268 0.19450861
97.677879 -7.7044201 -0.8000145 0.17535892
76.457741 -1.4017776 -0.59390771 0.084100813
24.7264 1.5617898 -0.49801618 0.069616742
127.77673 -19.322418 -0.70517379 0.20447026
132.72322 -21.369946 -0.68926489 0.19294257
54.766293 -4.8173547 -0.75855076 0.14332415
157.405 -31.436975 -0.86105144 0.13019499
52.652958 -7.5529265 -0.67425388 0.19834596
160.73126 -31.571404 -0.7823227 0.091638766
70.199043 -15.74907 -0.27701434 0.31233317
171.43752 -33.913845 -0.24378404 0.091531113
130.74655 -19.402515 -0.7245546 0.20663218
154.54659 -25.714664 -0.75384784 0.084645808
133.71407 -19.321331 -0.76675791 0.20868629
157.68108 -28.724644 -0.76789135 0.09717226
38.201237 -220.61792 0.29192156 0.25210917
34.43565 -220.70351 0.27514651 0.16440384
-211.20018 -125.03588 0.14395723 0.073745891
86.973991 -193.71419 -1.5302587 0.13769531
-209.97357 -125.87707 0.0022410005 0.086914062
109.32165 -202.39943 -0.87520337 0.14467995
202.81081 -79.554031 1.1574249 0.26400807
22.873352 -220.9324 0.3553451 0.36954707
-215.28871 -118.98228 0.88465053 0.32042146
-212.14973 -116.64794 0.11288238 0.070568591
107.60255 -194.52415 -1.1035919 0.17208709
108.37201 -194.71307 -1.0916969 0.16652934
112.71554 -192.40996 -1.1764634 0.010192871
115.62208 -193.47375 -1.1183461 0.16825147
-214.35478 -103.60216 0.384671 0.061139151
8.8578787 -194.20818 0.041355748 0.35294595
10.456601 -194.2462 0.06668698 0.35901895
-216.15125 -95.61097 1.0481416 0.2803545
-211.97394 -94.829666 0.092948198 0.074699208
-210.99496 -83.269379 0.15363677 0.068213597
142.54013 -176.78778 -0.6674751 0.38736454
-209.75076 -80.647011 0.081342176 0.070449635
157.5056 -16.612112 0.22524229 0.071673356
115.07657 -216.15218 0.6028232 0.25733697
-211.52132 -77.633415 0.42297083 0.074881189
-209.16289 -77.421272 0.11763673 0.073307343
121.42161 -214.32292 0.62413639 0.29422477
-129.19078 -213.19 -0.010570582 0.071261935
-156.33153 -202.12569 -0.057625692 0.059040342
-162.43329 -198.74699 -0.0240881 0.069338813
172.64319 -181.16626 0.23381436 0.11376847
-154.39885 -202.36343 -0.12846339 0.068358026
-160.07013 -199.04829 -0.14635909 0.060944971
184.67856 -127.74774 -0.70308667 0.22427757
-130.30243 -211.46437 -0.1700407 0.0634849
-156.32401 -200.08803 -0.25210696 0.071279585
187.35243 -127.51102 -0.77908522 0.14872073
181.78256 -124.49065 -0.63854247 0.20264415
196.38686 -130.66641 -0.18678109 0.083777584
-118.56177 -214.09296 -0.14498663 0.061178681
185.64082 -123.32966 -0.7401697 0.20574996
178.69044 -121.51254 -0.63668203 0.18895596
193.5013 -127.40544 -0.50080109 0.087354578
186.97815 -123.78669 -0.81942397 0.19088589
182.73523 -120.40835 -0.7079277 0.20204189
196.71228 -126.62357 -0.23348004 0.095370494
-62.809666 -15.30704 -0.81069112 0.020019531
-67.230026 -13.664186 -0.80321676 0.055035532
179.6391 -117.24728 -0.75151789 0.16368273
-58.165432 -16.5592 -0.7252267 0.026968608
-85.396576 -4.5602078 -0.69360548 0.11165145
182.15273 -118.60543 -0.69320464 0.15156913
196.57837 -124.46352 -0.28576201 0.087658077
-82.390823 -4.9510956 -0.72503108 0.10672563
-67.576515 -10.602265 -0.79445326 0.076588348
179.72003 -115.96415 -0.76086837 0.17672908
-79.528793 -4.2788606 -0.70502204 0.11160231
-85.327728 -1.3851836 -0.54864585 0.099596441
-48.400127 -16.66563 -0.68762052 0.18023004
-76.349678 -4.315268 -0.71818346 0.10538869
-82.382843 -1.5614327 -0.57405496 0.084429435
-46.504395 -16.126165 -0.68962783 0.16720644
-52.643909 -13.477043 -0.76614481 0.080642499
-80.815407 -0.34424073 -0.51786274 0.13112004
-43.633736 -16.211412 -0.68299025 0.15963745
-71.616844 -5.5570078 -0.74444234 0.091000453
-76.208328 -1.3061929 -0.57834214 0.099759117
-41.503204 -15.400117 -0.66668928 0.13460693
-67.376183 -4.6187701 -0.69974971 0.095563225
-94.110916 6.5182576 -0.079317339 0.10580008
-58.622082 -7.7907143 -0.79846251 0.020766566
-64.752289 -4.4311075 -0.70211983 0.081306219
-71.385719 -1.2673149 -0.56951821 0.10666865
-76.570801 1.2961038 -0.44815436 0.093942903
-62.319588 -4.833674 -0.72683334 0.11686168
-67.503838 -1.4691299 -0.56077778 0.09998668
-73.432259 1.4515147 -0.42828768 0.085580274
-58.709496 -4.2768354 -0.69040716 0.098380104
-64.365524 -1.4407663 -0.56915408 0.077700429
-70.781509 1.938518 -0.3932443 0.088496856
-169.09369 -14.298239 1.355376 0.1316787
-61.267879 -1.1908046 -0.57066905 0.090552919
-67.43235 1.521433 -0.41052151 0.095210999
-166.38301 -13.074726 1.083236 0.19721638
-79.269623 6.7329335 -0.12289258 0.073353164
-43.452461 -7.4547524 -0.77736396 0.13221093
-163.95811 -12.876477 0.5401063 0.18384431
-55.474689 -1.282943 -0.55969787 0.093267918
-40.468899 -7.4886436 -0.77391911 0.12533073
-160.61847 -13.394491 0.10728025 0.09519013
-165.14787 -11.847017 1.8748477 0.026638456
-59.496628 1.5714284 -0.41280138 0.079919979
-158.69849 -12.7956 0.053825103 0.09191177
-70.79377 7.6242518 -0.019408425 0.19644657
-13.464721 -16.466822 -0.23349257 0.22494742
-19.704145 -13.329562 -0.5725708 0.18152776
-46.816311 -1.5029656 -0.61685032 0.088315018
-10.871313 -16.055363 -0.23287462 0.2314568
-16.513029 -13.375702 -0.45069215 0.17524971
-64.858475 6.991394 -0.037148852 0.085276119
-28.644747 -7.7402377 -0.68178326 0.13615544
-13.418555 -13.345693 -0.4217906 0.16901384
-40.248417 -1.0176173 -0.61427397 0.083433315
184.37688 -97.459229 -0.72858 0.22897232
-10.462644 -12.94567 -0.42323413 0.20273966
-38.255772 -1.5614508 -0.61608857 0.078011923
-43.344242 1.6059637 -0.46508339 0.091758087
182.54562 -93.437134 -0.71011478 0.18033002
-13.407706 -10.53587 -0.5527733 0.15258449
-19.440973 -7.6257873 -0.69549805 0.11134715
184.93581 -94.081779 -0.72170609 0.2048219
179.33998 -90.949585 -0.75817949 0.208903
193.56067 -97.636879 -0.67298073 0.10542837
-1.2165799 -13.235056 -0.30936813 0.21582372
181.90961 -91.635956 -0.72018313 0.18118832
176.94266 -89.34745 -0.75881577 0.19017118
-19.394365 -4.7244277 -0.7203362 0.11806336
-4.517611 -10.552108 -0.51615685 0.17123921
10.771707 -16.077284 -0.0088955509 0.26761881
-17.844978 -5.8414564 -0.71945721 0.13078557
-1.3894264 -10.267215 -0.50152498 0.19647028
182.55231 -87.319626 -0.75135195 0.18578541
7.6449609 -13.396894 -0.12172323 0.1996489
190.44345 -91.572441 -0.77372426 0.11815977
15.443161 -15.124239 -0.090049103 0.17597656
10.526365 -13.104448 -0.14219597 0.20554985
192.68219 -91.317032 -0.25030044 0.021468773
19.843533 -15.509167 -0.054610316 0.3107605
12.547679 -12.652066 -0.16682255 0.20015132
7.5690875 -10.4432 -0.33126456 0.20892817
21.498697 -15.267142 -0.074146524 0.39407009
-4.304728 -4.6228151 -0.67107052 0.11915348
178.59772 -82.491341 -0.78643119 0.16416197
26.22398 -15.844342 -0.15063499 0.25791806
19.421246 -13.487807 -0.16492411 0.19290477
13.320498 -9.9299793 -0.33457643 0.20271425
197.02617 -87.633942 -0.29149237 0.094583459
22.020578 -12.941468 -0.18324186 0.14904435
-4.4768271 -1.5638032 -0.58869344 0.09318848
178.27176 -78.884384 -0.72591579 0.17006868
194.01599 -85.408363 -0.5539453 0.073523067
19.639071 -10.11966 -0.31929764 0.19447334
-7.7726364 1.5610716 -0.51374686 0.080467418
28.603783 -13.082347 -0.26440519 0.15007219
1.7835819 -1.035798 -0.63025063 0.069613017
-208.07835 -131.00087 -0.21743482 0.07233943
10.441727 -4.5396657 -0.65145564 0.12598513
3.7058508 -0.83104277 -0.56014884 0.097736016
-137.81874 0.62210828 0.83142132 0.26396275
-142.41618 4.9696665 1.8703626 0.061802454
7.526587 -1.6101364 -0.56994098 0.08024805
-202.72672 -131.36342 -0.62918806 0.079351373
-208.60594 -127.29192 -0.25420338 0.088350013
10.507432 -1.3058211 -0.6054585 0.068292797
-199.35829 -130.46066 -0.76799935 0.13405418
-1.2764482 4.42623 -0.2927967 0.071263589
-190.73682 -133.2635 -0.80094188 0.22236156
-128.6938 2.2306983 0.093775786 0.083422855
-132.63629 3.0867262 1.5713189 0.028470553
-187.6382 -133.39847 -0.75914168 0.17568824
-193.51457 -130.53491 -0.84440637 0.17100519
-130.23067 3.2984436 1.0036135 0.23723717
-205.66205 -124.90091 -0.5391255 0.067759864
-178.28157 -193.7606 1.3027766 0.1474482
-196.98335 -128.4344 -0.80729067 0.16175042
-133.44444 7.3101945 1.8357886 0.060231853
-175.89893 -193.77448 0.6906755 0.088532664
-124.49249 4.8964267 0.83042222 0.2031806
-199.53557 -124.40159 -0.8187561 0.14532369
19.68251 1.5063668 -0.4302322 0.079941526
-121.54659 5.1695766 0.78251761 0.23826237
-65.088692 -18.24675 0.12390572 0.1709128
22.448709 1.6352206 -0.45855308 0.070989162
-118.37895 5.8137994 0.45430186 0.23580609
31.351357 -1.299444 -0.60392493 0.078958265
-68.805359 -17.423285 0.43183738 0.0063476562
-116.25795 5.626904 0.32800907 0.17398563
-210.80479 -115.19515 -0.080836728 0.080068067
49.66515 -7.4853005 -0.67939854 0.19162536
22.640381 4.4327693 -0.2726188 0.063395925
-208.50839 -115.51717 -0.30123207 0.081390984
31.707682 1.481136 -0.44053257 0.070243314
46.067989 -5.1520123 -0.74061173 0.1486451
-53.909985 -18.212109 0.11455385 0.53820801
-57.591164 -17.544355 0.41180718 0.0048828125
49.733234 -4.5953074 -0.73502469 0.11245022
22.340368 6.8171802 -0.080280513 0.071828403
-55.155762 -17.065434 0.33124089 0.0009765625
52.615856 -4.4671426 -0.74702507 0.12736079
-46.419281 -18.222912 0.13575783 0.49952269
61.58268 -7.599792 -0.67466176 0.19053178
34.420387 4.2742672 -0.24314703 0.060511671
-44.190838 -18.175575 0.10914207 0.58949113
64.599106 -7.5297689 -0.66074157 0.1943786
57.436821 -5.6351881 -0.76037085 0.1639988
31.455362 6.1112747 -0.028636869 0.067504883
-46.655647 -17.727892 0.43220001 0.0073242188
81.668259 -12.96174 -0.43020231 0.15678667
-101.83402 7.1872048 0.79188007 0.12952679
92.19825 -15.492061 -0.33299407 0.3275131
85.203697 -13.409268 -0.55333322 0.16877769
58.6185 -1.7217513 -0.61681592 0.093591027
94.596664 -15.602503 -0.35994506 0.31737167
151.96545 -40.08926 -0.56156439 0.34069887
41.859047 6.0618472 -0.029466627 0.076438211
54.881405 1.4145516 -0.48670593 0.068227209
90.768936 -12.594227 -0.56280148 0.1639422
84.219299 -9.3387289 -0.59738153 0.19224846
58.583321 1.3920386 -0.41472924 0.073264152
94.632469 -13.634069 -0.60213238 0.18935546
88.584312 -10.291456 -0.64209241 0.21075377
145.73671 -34.29525 -0.56694192 0.30733135
76.07151 -5.4533577 -0.79389048 0.14610754
50.871616 6.0503612 -0.0047278851 0.079162598
148.00201 -35.096272 -0.6422962 0.31082588
99.65905 -12.628743 -0.63522577 0.20163389
73.043968 -1.1964163 -0.61621016 0.066097632
109.40493 -17.26107 -0.48669785 0.29910916
124.67971 -22.562216 -0.43369025 0.30466339
54.216564 6.2541032 -0.0056414939 0.07043457
133.25839 -26.120457 -0.5922296 0.26437861
148.58954 -31.400635 -0.75159103 0.21698357
100.53333 -10.258887 -0.70527434 0.20219027
136.65738 -25.413494 -0.75283998 0.17452785
108.98004 -12.679131 -0.7248916 0.18043411
102.44314 -9.5571175 -0.74674618 0.19671957
76.005852 2.3977568 -0.33438864 0.050840583
112.69547 -13.071681 -0.66420913 0.20186532
106.80429 -10.364396 -0.79386169 0.20463249
141.94064 -24.385202 -0.80711645 0.19793203
136.61552 -22.43749 -0.75015974 0.20764455
109.65224 -10.42369 -0.81792814 0.20626497
145.71249 -25.463333 -0.83329105 0.21349153
139.69859 -22.465546 -0.80570608 0.21149176
111.75523 -9.9883814 -0.86412793 0.1785281
168.95723 -33.682327 -0.44218439 0.084508896
163.20726 -32.113377 -0.40187931 0.042726081
135.90428 -19.03533 -0.84045714 0.19323984
151.26498 -25.535688 -0.84790063 0.10908698
166.6257 -31.576473 -0.46394899 0.073459096
160.98251 -27.709972 -0.57035846 0.066431895
133.57896 -16.697866 -0.87081683 0.15336698
169.67058 -31.473457 -0.20265096 0.072586045
163.16022 -27.265001 -0.38326415 0.086183771
59.255695 -202.89456 -0.91265696 0.13280731
171.61617 -32.188053 -0.093593478 0.067350283
165.18948 -27.487112 -0.23627445 0.07199122
160.5256 -25.507578 -0.42542005 0.073862918
207.6832 -103.32656 2.560081 0.085703976
168.83995 -29.327347 -0.095545515 0.078323685
85.456024 -211.28337 -0.54896098 0.11999248
79.659393 -208.67189 -0.68063545 0.10413226
205.64716 -99.81987 1.0821365 0.34432516
165.30994 -25.866707 -0.088280603 0.062571421
82.194084 -208.49319 -0.69699919 0.11319212
207.6996 -101.73037 2.5438967 0.044484992
91.891487 -211.06416 -0.51310962 0.13007222
85.78756 -208.58527 -0.7068975 0.095359638
79.283081 -205.40042 -0.86011052 0.13928165
150.27861 -15.77728 -0.2406486 0.092260927
87.635475 -207.70901 -0.27051952 0.022189107
62.638767 -195.73042 -0.95966345 0.29049137
98.431519 -212.62218 -0.38518074 0.11896676
-211.3907 -136.5331 0.43716133 0.062044896
85.263634 -205.56787 -0.87448525 0.13430227
-13.568536 -221.65833 0.4374446 0.35044938
73.376183 -199.87489 -1.0566964 0.12513167
109.29913 -213.84952 -0.11420427 0.097435012
82.79641 -202.57918 -0.9874264 0.11622392
112.01956 -213.9507 -0.055331625 0.10215497
141.35309 -8.6551695 -0.063951991 0.060957313
-209.30579 -133.60509 0.086250074 0.073055215
89.244072 -203.65862 -0.88328254 0.15459687
91.567001 -202.40057 -0.92918599 0.12606898
73.682365 -194.189 -1.3662465 0.12392413
88.540749 -199.22105 -1.2129123 0.16612723
79.693352 -4.4981298 -0.75971854 0.11252908
-35.654648 -17.593771 0.56461501 0.0092773438
-34.465401 -18.158201 0.22547549 0.45290947
79.342041 -1.6118416 -0.62818336 0.088739097
103.60715 -16.474277 -0.57183194 0.30960479
36.223564 3.747479 -0.29328531 0.043443654
82.49881 -1.2150905 -0.62775809 0.065105304
103.50771 -13.172079 -0.73766536 0.19053386
-32.610477 -18.098671 0.29793218 0.41307485
121.62386 -16.408154 -0.60237718 0.21141349
61.565964 -4.6509762 -0.74049056 0.11483338
-208.65302 -113.04292 -0.32447392 0.07506796
-210.68695 -113.03117 -0.12297814 0.070835002
85.79483 -1.4894003 -0.60741711 0.083841026
127.24129 -23.125118 -0.52825731 0.30100006
88.728806 -4.5224886 -0.7926147 0.1121009
88.632233 -7.569046 -0.76576638 0.19334815
67.703331 -1.3218919 -0.5651558 0.079864502
63.690399 -1.5743036 -0.65284342 0.074414119
64.162445 -4.6325231 -0.74970484 0.13466071
124.65224 -16.400118 -0.64567649 0.20999938
40.494083 1.5724647 -0.43775702 0.075138181
148.67047 -25.702023 -0.87407768 0.1596542
88.697014 -1.5207349 -0.62646043 0.078971028
142.53038 -22.703876 -0.87148774 0.18461287
144.72858 -22.66325 -0.88608789 0.15906142
43.49342 1.5122905 -0.4824594 0.068484217
129.21111 -15.426935 -0.84658027 0.20297804
136.90874 -202.35822 -0.22629675 0.10693702
133.60577 -202.78624 -0.37108696 0.10017236
138.16347 -18.518034 -0.87719387 0.15080978
142.10669 -19.760298 -0.85795927 0.10947557
148.85834 -22.771835 -0.80680662 0.09174411
139.61499 -16.754492 -0.80879521 0.091636539
163.62474 -25.338638 -0.17458092 0.069812976
145.51559 -16.264708 -0.56410074 0.060053166
144.27632 -19.528139 -0.80407077 0.10654395
7.7423525 -221.20724 0.25921193 0.40951234
-209.78825 -127.86789 0.023404196 0.087919228
-213.80463 -125.74319 0.52771634 0.081956521
10.345262 -221.14922 0.27204937 0.34108579
-177.09871 -196.63409 3.0078413 0.31608072
107.0783 -203.15138 -0.84748352 0.12797165
-176.21118 -197.3936 3.0529482 0.1936553
198.65742 -78.265793 0.088597454 0.067483664
56.410595 -15.945578 0.15619259 0.29825106
-216.80247 -119.43391 2.1786265 0.023430796
95.324593 -193.42162 -1.3189069 0.16683422
-182.84682 -191.87878 3.049062 0.16756184
25.374842 -220.88354 0.33272424 0.33819178
-216.23245 -115.56281 1.2418629 0.37539867
29.773935 -220.76753 0.33986476 0.30141842
-214.79807 -115.76126 0.63232565 0.16222806
31.325399 -220.74876 0.27909526 0.28661546
113.2667 -196.75339 -1.0612905 0.20162532
127.11988 -202.53534 -0.55703455 0.098966092
130.46393 -202.45927 -0.48456416 0.12275623
201.49074 -70.436165 2.2053823 0.013277667
-216.28786 -110.73157 1.175658 0.46056682
79.409737 -15.387745 0.07427039 0.34910074
-214.05846 -110.12317 0.36594194 0.067741916
46.601608 -220.45364 0.305024 0.25285152
-212.06929 -109.71928 0.098801084 0.076112323
49.434139 -220.43137 0.29827431 0.21941537
53.636333 -220.32764 0.33369803 0.27642167
-216.38562 -103.80399 1.2050239 0.35585544
-3.9131925 -193.85486 0.0021716282 0.38098145
118.10214 -188.10338 -1.0588063 0.38512939
-211.74803 -104.75122 0.045856271 0.064319424
-216.2914 -100.44595 1.2074571 0.38447073
-216.18462 -98.875137 1.2207069 0.37382519
70.628395 -220.00587 0.37278959 0.39044499
73.361053 -219.95909 0.37482762 0.2949833
-212.16492 -98.223053 0.099176154 0.075275958
12.038309 -194.29494 0.092560872 0.35302734
-215.10503 -95.446114 0.88070881 0.27316833
82.428452 -219.66162 0.36857358 0.28678489
-211.89349 -91.718689 0.13686511 0.071164422
-209.97566 -84.444458 0.0066096745 0.081542969
-214.53749 -83.579231 1.0710615 0.31147593
103.35836 -217.99931 0.42784169 0.37390307
162.0009 -184.12746 -0.39858338 0.068359375
-209.65071 -81.708405 0.036593933 0.073838994
-213.95213 -80.059502 1.1711391 0.35534927
158.01169 -178.10255 -0.84713346 0.13384353
137.64877 -6.260694 0.016399195 0.077779137
146.03403 -173.28328 -0.61669743 0.30480784
110.33498 -215.46138 0.040059846 0.10735677
155.28278 -175.51514 -0.94311643 0.13517344
112.92268 -215.26674 0.085729845 0.10147472
157.40239 -175.67657 -0.91071218 0.14944631
160.28276 -174.58617 -0.84893304 0.15186195
118.74351 -214.64308 0.55769944 0.32898581
157.53427 -173.09674 -0.93461078 0.14888644
151.47697 -169.76041 -1.0014344 0.19553663
124.40837 -213.89633 0.7184785 0.22404088
127.6325 -209.51663 0.06134871 0.10297912
160.00462 -195.63068 0.86140412 0.26501662
161.29915 -193.19644 0.68896401 0.2789835
164.61079 -186.48903 0.055160314 0.098421402
166.71182 -184.96295 0.091777824 0.09826488
-153.23848 -204.20766 -0.011470963 0.054757256
-144.97758 -207.63391 -0.044670798 0.070092112
170.72229 -180.99136 0.031542055 0.093634896
