# .PCD v0.7 - Point Cloud Data file format
VERSION 0.7
FIELDS x y z intensity
SIZE 4 4 4 4
TYPE F F F F
COUNT 1 1 1 1
WIDTH 1098
HEIGHT 1
VIEWPOINT 0 0 0 1 0 0 0
POINTS 1098
DATA ascii
-2229.6455 -405.64349 0.25425184 0.14898682
-2278.0654 -384.55066 0.31400293 0.15850152
-2263.4229 -391.95178 0.43831915 0.28247368
-2269.5232 -388.99954 0.42257765 0.20810954
-2275.4299 -385.96127 0.4680326 0.18896484
-2281.4436 -382.61926 0.85088116 0.13798015
-2267.7988 -389.85898 0.042669922 0.21118164
-894.45392 -260.36005 -1.6581159 0.36206287
-2215.3618 -409.87112 0.083018266 0.12660435
-2415.4634 -103.38816 0.61234111 0.024804687
-2379.4888 -118.63751 0.15829773 0.61294341
-2419.8149 -100.81573 0.50305682 0.085666232
-1741.3566 326.32794 -0.83726156 0.10179532
-866.17218 -105.19099 0.62934393 0.013574218
-918.67957 -302.30722 2.3077135 0.26018688
-917.87732 -301.47186 1.63077 0.24438477
-1302.5563 303.59525 1.2142178 0.16003418
-1246.4434 -375.29922 1.0239854 0.25071958
-868.22052 121.41866 0.30316958 0.053477038
-2388.2666 -264.68332 -0.02672459 0.11409505
-864.85999 125.18218 0.37885138 0.060515031
-1282.6055 303.43475 0.60168153 0.27762857
-1207.4611 332.55341 -1.0785277 0.097698711
-2338.4666 -337.67929 0.53482288 0.23296908
-1252.7098 296.23926 0.55261195 0.020380378
-1053.7332 -387.64993 -0.36784595 0.037261102
-1237.1261 348.76282 -1.1423212 0.028580731
-2348.958 -327.90677 1.3374125 0.0045572915
-908.23029 -286.16827 0.44430828 0.1353568
-883.52869 -239.14754 -0.033149421 0.15768433
-1498.2734 -411.35788 -0.81677413 0.076517545
-2410.3235 94.644859 -8.6104441 0.16898601
-1495.4459 -411.33295 -0.74542046 0.09333805
-2133.2812 302.29385 -0.17073219 0.19888161
-2131.468 302.55466 -0.3802093 0.17296848
-2129.3137 302.90268 -0.24721958 0.32723224
-2104.4761 293.32495 -0.1656069 0.20356312
-2111.9275 300.90607 -0.50407338 0.012904576
-2086.6096 294.48883 -0.77674806 0.018554688
-1252.4015 -374.58084 -0.24301584 0.42963326
-2257.5393 -394.68567 0.25831392 0.39829785
-1429.676 340.64908 2.2193139 0.071313478
-2416.0317 -115.53835 1.0417414 0.0037404143
-2104.6492 305.73462 -0.31733793 0.12953289
-872.35638 162.41408 1.0500749 0.026000077
-2411.657 4.5665202 -1.2643503 0.11758478
-1007.018 -375.43292 -0.3173134 0.38243991
-1258.6224 333.45316 1.1875788 0.008174832
-2189.48 294.11594 2.2272999 0.01408459
-2056.4988 -417.82385 0.47402731 0.39774889
-2098.0713 -396.07071 0.82610619 0.027099609
-2077.0615 -401.09891 0.86019498 0.035074871
-2145.9768 289.76703 0.71981317 0.02084961
-2102.2695 271.59216 0.52326441 0.13291016
-2140.3728 289.04605 1.0241354 0.17544556
-1962.8617 -384.65424 -0.14678347 0.1875255
-1969.0916 -382.46149 -1.1201179 0.026611328
-1051.4745 -394.59119 0.41316134 0.12705338
-2092.4795 271.77155 0.1913964 0.1435046
-2296.9385 -299.59525 1.3600976 0.31775716
-2303.2339 -296.66428 0.96901798 0.30303276
-1465.5557 -377.32227 -0.29256108 0.024066044
-1210.5419 333.52472 0.37631318 0.14762238
-2129.4512 290.11319 0.71119475 0.20751953
-2060.0374 -398.58093 0.062950507 0.0080566406
-1492.5143 -411.39719 0.98059148 0.031850036
-2412.4553 -16.529799 0.49670219 0.42971966
-2108.3281 293.28702 0.50576943 0.048433702
-1432.8403 -377.24689 -0.43526867 0.35901347
-1429.4689 -377.31494 -0.21841134 0.3393206
-2085.4553 285.90662 0.83885992 0.064941406
-2167.5667 321.702 0.42145979 0.069824219
-2363.0569 -30.203444 0.30448598 0.018232865
-2093.7034 293.28351 0.0034323484 0.0078125
-2412.6138 -7.3064098 0.20463578 0.3609755
-1837.5356 -415.55804 -0.13616216 0.42140412
-2408.8335 106.99651 -5.8229914 0.22969565
-2107.8743 300.43082 1.2546843 0.0073242188
-2412.6304 -5.4478807 0.40655035 0.34064129
-1777.6924 -380.94678 -3.6565163 0.027389327
-873.07178 -224.78734 2.6975961 0.13134766
-1144.5424 332.03882 1.1862969 0.11346436
-1627.6001 318.07428 0.9362101 0.001953125
-863.76239 -7.1758523 1.0494686 0.03873698
-2407.4866 56.652634 -0.080198027 0.01163737
-1079.6932 306.80515 0.63073665 0.32686362
-873.01471 -159.53973 -0.030088335 0.00390625
-1635.377 329.03308 2.1559699 0.019205729
-1933.1031 -420.12567 0.58114851 0.073437497
-1873.4149 -387.8653 -0.09330979 0.03805542
-863.81 -2.6312809 1.3575704 0.028320312
-2087.1318 305.26553 0.077493928 0.1233724
-2411.9282 -214.72505 1.052191 0.15122478
-1804.0492 -415.241 -0.22732507 0.099609375
-1510.4788 -378.86758 0.1529025 0.36129305
-1930.5602 -417.82089 0.40103102 0.057561908
-2376.4609 -225.21815 0.17239144 0.033945035
-2345.4602 198.14445 0.0038002431 0.00048828125
-2363.7737 209.76605 1.9071562 0.45408848
-952.43347 -337.36566 -0.2595399 0.37109992
-2338.1489 198.04417 0.17803602 0.010462443
-1080.4847 323.62842 0.69105077 0.040690102
-1079.9053 322.89056 0.11715041 0.42626953
-1476.3561 -381.01627 2.1056542 0.26200867
-1411.7351 -410.39377 0.48953685 0.075266838
-1831.4409 325.28625 -4.1938047 0.090448499
-1594.3434 329.0715 1.0543447 0.0009765625
-2036.835 299.91052 1.3031296 0.671875
-1903.1432 -416.67227 0.58927077 0.19952567
-2011.2579 293.02786 2.1351137 0.091064453
-1968.6379 -383.12457 0.87821168 0.10065555
-1018.584 308.93774 0.2279492 0.33435059
-1003.4625 300.92871 0.44985366 0.6451872
-1030.7167 314.56631 0.61161083 0.20846121
-1390.6062 -410.14676 0.81532186 0.096360691
-1000.577 300.87778 0.71430981 0.0032057988
-1047.4841 321.06018 0.55190516 0.18066406
-1750.5476 -414.72058 -0.062644109 0.23141359
-1019.3195 309.30136 0.28159863 0.29895833
-2351.5613 226.52618 1.350396 0.32880181
-2412.1006 34.522415 0.94132555 0.27096698
-906.21381 -275.74997 -3.3455534 0.17915401
-979.56775 -358.01398 0.42703649 0.14573318
-2322.5552 221.65744 0.24322364 0.04601476
-2384.0271 85.537437 -0.016598463 0.009114583
-1921.4933 -389.32303 0.42235544 0.047080733
-1551.0453 330.26837 1.5289207 0.13232422
-1507.5374 314.56116 0.38802683 0.31928277
-1476.9033 300.81699 0.34301448 0.22824435
-1504.5243 314.55997 0.71082491 0.26144409
-1453.7565 291.98361 0.042068511 0.048529729
-1543.6586 330.21295 0.97948718 0.14050293
-1471.5209 300.92801 0.25235617 0.29978707
-1540.1508 330.19229 0.89937305 0.15551758
-1986.8 305.84628 1.2420604 0.2949056
-1537.4332 330.1662 0.95704359 0.1728719
-1342.345 -409.57227 1.4616696 0.02355957
-1492.7574 314.49756 0.06248619 0.18318684
-1900.1134 -387.93292 0.40773299 0.084348649
-1531.4166 330.12305 0.64702898 0.28305462
-2238.9316 -402.34717 -0.43382943 0.22963968
-1486.3811 314.46811 0.37610736 0.17054966
-1497.3624 318.00458 0.58604437 0.0034179688
-2221.1638 -408.28171 -0.26145935 0.10707311
-1273.5586 -375.04611 -0.23480223 0.48442268
-2255.3767 -395.66187 -0.37875286 0.33068025
-1957.3376 297.48886 0.40156752 0.14483067
-872.2948 -223.30399 3.2875605 0.12615335
-2212.8015 -410.49692 -0.094103299 0.10876465
-2379.4749 -115.62424 -0.17468394 0.45992026
-1507.4596 330.45642 1.3421291 0.02097025
-1866.4966 325.29428 -0.06211568 0.28662592
-1501.8337 330.44257 1.3016827 0.0094181942
-1306.5312 -408.58173 0.29147977 0.14139576
-1177.4801 -407.20764 -0.049798165 0.14027235
-1303.1858 -408.47607 0.072773054 0.10559082
-1432.858 304.0531 1.8328224 0.088500977
-2222.3418 263.43283 -0.13947162 0.39084518
-1991.0027 324.06488 1.3230516 0.0080566406
-941.0799 -342.09882 0.66207778 0.036499023
-2416.5789 -90.979111 -0.28340968 0.021752929
-1427.5925 305.99002 0.66837758 0.067382812
-1792.4355 -414.86136 0.82812208 0.16659163
-2379.343 -103.61786 -0.26143345 0.48545328
-1276.3042 303.08136 -0.12703286 0.24883479
-1968.8252 324.20163 1.0965112 0.0058231042
-2379.1128 -97.620392 -0.12083367 0.45081243
-2412.218 78.619209 0.41843745 0.081054688
-2410.6028 91.148888 -9.2367182 0.14764553
-1405.7258 306.74146 2.1542099 0.026367188
-1471.4457 -379.86017 3.0682335 0.2343622
-1258.4689 303.18475 -0.52195764 0.33604601
-1453.4443 330.31012 0.76167178 0.10904381
-862.09821 -133.677 0.7859031 0.07142134
-2412.0559 -124.81225 1.2209038 0.38305303
-1359.3323 304.8609 1.8856602 0.022949219
-918.18317 -320.86639 2.6361032 0.23113459
-1225.3953 -407.7951 0.43652058 0.12597542
-1409.2252 332.18149 2.5464585 0.0095825195
-2379.4514 -124.44976 0.24804915 0.53855073
-2238.9236 -402.35663 0.26453269 0.24834189
-2266.3735 -392.16895 1.0623894 0.011800131
-2251.5825 -397.29498 0.43403864 0.55001521
-2236.1504 -403.37335 0.13404271 0.1930542
-2242.5647 -401.01056 0.33305612 0.31528494
-2227.3765 -406.3988 0.18169333 0.17431641
-2232.251 -404.74838 0.22854893 0.18839519
-2218.9485 -408.93149 0.56205803 0.1164202
-2286.2588 -379.7598 0.12145843 0.13216145
-867.46179 -109.86115 0.04916678 0.050109863
-2279.4041 -383.77625 0.49162525 0.14685059
-2200.4094 -414.92419 1.189731 0.28511798
-2206.9414 -411.86902 0.52956223 0.12589519
-2378.0791 -117.23013 0.56916755 0.025065104
-1876.5157 325.50287 1.998787 0.15909939
-870.48572 115.56884 0.53851444 0.18418427
-941.7384 -291.00879 0.58080578 0.067871094
-938.18445 -293.48871 0.38582194 0.22365662
-1282.5773 296.82919 1.290687 0.050914835
-1163.1219 -413.39911 1.3958153 0.046905547
-1693.2496 312.03186 -0.14218363 0.34426373
-1534.4736 -411.62314 -0.55646229 0.15183938
-2145.7322 289.67673 -0.051582407 0.10018485
-898.61932 196.479 -0.23209348 0.16771773
-1210.5515 332.54709 -0.34072241 0.11650391
-1279.4161 303.27432 0.064546436 0.27529296
-1515.6246 -411.04364 -0.23560219 0.3413744
-1834.6469 325.62769 0.37192008 0.10904448
-904.52765 205.53139 -1.9818944 0.25713339
-1246.0129 295.854 1.3866787 0.010742188
-2367.8853 -319.02029 1.3452058 0.023785628
-876.362 139.42853 0.44782645 0.12857068
-914.37183 -283.242 0.32296419 0.060144126
-1238.6665 295.83746 0.22903442 0.077910297
-2401.6838 136.47354 1.9649698 0.30500263
-1038.178 -389.88629 -0.15150318 0.19277351
-2113.4844 293.15778 -0.27816516 0.35926229
-2201.1567 -385.93408 0.18359619 0.018717447
-2110.6003 293.26523 -0.49349162 0.24140762
-2107.7 293.2767 -0.36813271 0.1877916
-2126.9617 302.9501 -0.18850423 0.10253906
-2089.5745 293.34525 -0.3604086 0.093406677
-2083.8201 293.37427 -0.4317157 0.094060726
-2107.6667 305.5918 -0.56751382 0.14464751
-2084.8772 294.56631 -0.18499254 0.011962891
-1270.8535 333.36316 1.4311365 0.011293384
-2405.5786 -217.42685 -0.18054797 0.17857841
-894.59802 -263.02625 0.33272851 0.41008317
-1714.4104 311.92776 0.55117148 0.12035435
-2341.0537 199.91783 -0.10089486 0.06276042
-2097.9631 -399.44397 0.77854002 0.10566203
-2163.8772 285.39294 0.95635378 0.071394429
-1756.4333 -382.09164 3.4575059 0.36165366
-2119.6228 271.6611 0.76247257 0.37027052
-2035.2863 -417.88644 0.3280597 0.38398573
-2104.3887 271.58508 0.52186668 0.13537598
-2143.0679 288.88382 0.78190869 0.19011579
-2098.604 271.77444 1.2311348 0.19405112
-1465.4285 -378.28607 -0.40099555 0.46581289
-2020.5383 -418.86346 0.69550449 0.0082120029
-900.60101 200.19569 0.2802785 0.14273711
-2134.6497 290.28387 0.49269223 0.26083469
-1972.2596 -379.63309 -0.23568757 0.025432361
-2323.4558 -285.90408 0.96065074 0.29684013
-861.87891 -34.740723 1.1932416 0.07070037
-1573.571 328.63824 -2.0602441 0.13782351
-2087.3428 271.6738 0.88548708 0.10233561
-2017.496 -416.8963 0.093199737 0.2603586
-1441.0217 -377.4632 -0.41340309 0.35233366
-2343.2209 -264.26807 0.50220287 0.085114084
-2129.437 302.8613 0.080536537 0.29510945
-1482.8035 -411.13934 1.3233099 0.022143554
-1480.4629 -411.44717 0.41023934 0.019516883
-2127.0193 303.01431 0.71688545 0.30289713
-2125.5957 305.655 0.51977277 0.21664342
-1977.7589 -416.98273 0.46388301 0.26587182
-2112.3394 300.46814 0.23333995 0.071552463
-2372.554 -24.572603 0.26054069 0.11207101
-1786.5789 -380.47528 -3.9226224 0.038124863
-2397.6753 148.49135 4.9071851 0.22825405
-2086.5059 293.06073 1.3361739 0.026855469
-2370.3955 -22.831806 0.43638474 0.11344726
-1465.4612 -410.59491 0.36404675 0.13369885
-860.9704 -11.858133 1.3030396 0.076806642
-1080.2864 305.27414 1.5113041 0.077113561
-1648.6572 328.37988 0.77996689 0.21520548
-905.88629 10.417264 1.641243 0.095214844
-2415.2961 2.4288294 1.0702738 0.081415348
-1504.4746 329.77066 -0.18768634 0.10751343
-867.31866 -1.5065949 0.34016666 0.29076633
-1658.7391 336.28897 1.982479 0.0083414717
-1519.3977 -378.93378 0.33880579 0.34932905
-1810.4475 -415.32028 -0.31489068 0.12064304
-905.77301 15.560141 1.900611 0.014160156
-2362.3374 -235.38405 0.50735223 0.20058925
-1513.4132 -378.77997 1.282272 0.42905027
-1866.8795 -387.80319 -0.20266242 0.024727957
-1313.6057 -405.59924 -0.2236636 0.040019684
-1744.528 -382.21811 -3.9681604 0.28738913
-2356.6155 -234.88873 1.2276961 0.018427428
-2365.5903 208.30145 1.3031166 0.39520767
-2420.7009 12.377413 1.3856738 0.065572917
-867.30292 7.4322205 0.39440814 0.14976214
-1855.363 -387.34116 -0.49823135 0.02059672
-1102.6794 331.92337 0.67787594 0.081817336
-1099.4121 331.69611 0.10712804 0.26728645
-1414.6113 -410.17114 0.66189665 0.24800415
-1276.5222 -408.09402 -0.18118402 0.46850988
-2018.7916 290.68414 1.7433436 0.28110352
-1614.7123 336.62512 0.78713512 0.10772028
-2015.9882 290.35635 2.4203029 0.064941406
-1768.3876 -414.44891 -0.091166116 0.38616675
-2033.2716 300.00726 1.3009088 0.065115795
-1834.5807 -382.85394 -0.51442009 0.40704581
-1038.5702 317.82138 0.19792783 0.17175293
-1023.9745 311.52277 0.44570926 0.26036581
-1008.0846 305.08044 0.66144669 0.020385742
-1255.4441 -408.75983 -0.13590497 0.38358432
-1020.3787 311.44028 0.70339376 0.005859375
-1007.3843 304.35583 0.64063263 0.10236274
-1387.5234 -410.14294 0.83233005 0.093988769
-1039.7815 318.28354 0.28712338 0.18808594
-1876.3593 -416.23062 0.80690354 0.061555456
-2384.5764 79.825089 -0.039777782 0.0092773438
-1525.4147 314.21555 1.0747243 0.33223528
-949.60583 -313.4454 -1.2306615 0.050131854
-2373.1199 -195.72914 0.29572579 0.058141638
-2412.488 40.434654 1.3505166 0.45362517
-1858.5389 -415.85919 0.26972997 0.13328044
-1510.5229 314.58578 1.0637044 0.3930513
-1548.3096 330.24191 1.0035138 0.13916016
-1455.1541 291.92358 0.28566849 0.26445311
-1545.8075 330.23773 1.1884881 0.14794922
-1474.5205 300.86819 0.099712282 0.26639134
-1501.7748 314.53815 0.5050984 0.22316894
-1451.6196 291.98193 0.23898256 0.050292969
-1498.545 314.53821 0.44869256 0.1827596
-1944.5466 287.3942 1.1996255 0.075439453
-1495.6429 314.5231 0.49134254 0.20423473
-1320.0178 -418.25632 1.8691723 0.012410481
-1534.4302 330.10355 0.60687792 0.12748887
-1786.5845 -380.0694 -0.25540358 0.064584889
-1488.9269 314.53281 0.1888627 0.16134207
-2260.1597 -393.50464 -0.27846998 0.37245992
-1528.5203 330.07996 0.92605883 0.35979268
-1519.6583 329.35333 0.65420622 0.097840242
-2263.3804 -391.98895 -0.018352471 0.28558716
-973.76349 -344.28198 0.050663732 0.069042966
-2233.4966 -404.29962 -0.44409651 0.16955566
-1935.6425 288.06879 0.6600818 1.0252591
-903.22559 -150.91414 1.3896846 0.46453112
-1195.5391 -407.23337 -0.21049541 0.35725296
-2411.8291 -159.49783 1.2946798 0.16552734
-2308.0664 235.70152 0.27487442 0.079015464
-1600.3815 314.19455 3.180738 0.15144429
-1960.5336 308.50693 0.41653985 0.18383434
-1594.506 314.39703 3.3727882 0.13427734
-1255.6193 -374.81314 -0.094445124 0.39476833
-862.97058 -160.17146 0.90607405 0.081408881
-1251.5037 -374.57617 -0.16173561 0.38739693
-1410.2158 296.32858 2.2400854 0.15844727
-2412.0557 67.620171 0.86246991 0.29209092
-2012.0533 333.91357 1.3356562 0.18359375
-862.80853 -157.04619 0.88529253 0.09851864
-1858.5815 -387.39331 0.05790513 0.28653294
-1446.1583 313.33914 0.81904382 0.71980792
-1294.5016 -408.55423 0.54337704 0.21507184
-2410.6995 -91.44117 -1.0710375 0.35554492
-2219.1868 266.16672 -0.16400242 0.37673548
-2411.7737 -147.05354 1.1831315 0.14306641
-1255.4323 296.32965 -0.064172506 0.064795114
-1990.8573 334.67224 1.4527937 0.13195801
-2411.7493 -142.61566 1.3540542 0.1350586
-1478.1207 -379.72348 3.0412645 0.13240559
-2346.5264 -327.67325 -0.44669107 0.21586104
-1385.7411 297.07108 2.4567671 0.1652832
-1273.3983 -405.45755 0.19884968 0.091658533
-1320.3086 332.75443 -0.16747507 0.18994141
-1546.2571 314.01044 3.0681553 0.36428353
-903.12909 -116.98499 0.92356527 0.34423828
-2104.5098 -417.95056 -0.16946921 0.19082028
-1339.4851 296.60019 1.8533922 0.032024067
-862.62854 -123.94655 1.3195099 0.047395833
-916.88177 -319.75134 2.769145 0.17123519
-1429.6877 340.53696 2.265558 0.074902341
-2248.9941 -399.90671 0.69628727 0.0025015404
-2260.2959 -393.41907 0.42167032 0.34954441
-2245.3259 -401.48288 0.96191877 0.0087231835
-2272.231 -387.62878 0.50460815 0.18994141
-2257.5356 -394.6817 0.31580883 0.42456105
-2283.3459 -381.47781 0.53263158 0.11474609
-2248.8315 -398.45715 0.36190119 0.41162193
-2255.3718 -395.66751 0.40605202 0.40891734
-2280.7537 -383.02979 0.92883211 0.11987305
-2267.7793 -389.86569 0.097299688 0.18939887
-887.97083 174.15244 -0.26817003 0.45524031
-2215.5076 -409.83237 0.18988496 0.13533528
-1765.5574 -381.95709 0.42947793 0.47736591
-1771.4193 -380.32224 1.2634467 0.045369897
-2230.95 257.01257 0.74702692 0.41605684
-2419.2903 -101.61319 0.61888283 0.03125
-2032.3718 333.09537 3.0839143 0.16254883
-1240.4561 332.74783 -0.38641548 0.53755313
-918.61041 -302.25034 2.1852098 0.28958333
-916.6095 -300.02112 1.6541122 0.15673828
-1864.4281 325.59885 0.67085135 0.24051715
-915.82056 -299.14343 2.6314554 0.22638664
-2419.3638 -92.645584 0.14894557 0.017578125
-1171.3766 -407.33987 0.47834641 0.12578952
-2166.4028 298.95322 -0.14960331 0.017875649
-1264.6321 296.64124 1.1680988 0.024013672
-1282.2499 303.41922 0.71040511 0.26895419
-1207.4299 332.54434 -0.85356158 0.097442627
-1153.4666 -406.2886 0.39698881 0.2412014
-2269.4529 291.62485 0.40778008 0.21820594
-1249.7072 295.84647 1.1956183 0.052312531
-1236.897 348.84955 -1.0798594 0.065917969
-2348.9399 -327.9458 1.5162126 0.001953125
-1254.2727 300.65112 0.91518074 0.085353747
-883.33618 -238.63396 -0.12631485 0.17365152
-2376.446 -94.643303 0.27545127 0.0035743047
-1819.4977 325.73285 0.19351786 0.074395515
-2410.375 94.325005 -8.6009007 0.17285156
-906.74164 -283.8627 0.4148556 0.15593912
-2133.2737 302.2937 -0.11624735 0.18538411
-1753.6625 -415.01242 3.2285233 0.014485677
-2131.4746 302.57721 -0.33330482 0.24191277
-2129.4253 302.88086 -0.19784665 0.31237358
-2104.5579 293.29306 -0.32419422 0.17820381
-2092.4792 293.36621 -0.63141906 0.1395874
-2152.9075 320.92831 -0.21472083 0.2172427
-2304.5334 -328.30521 0.076021768 0.060058594
-2086.7629 294.42023 -0.6620549 0.010253906
-2104.4631 305.7518 -0.21662693 0.13816433
-2389.3818 -6.9115205 -0.30114833 0.014160156
-1726.5643 311.45471 0.59900671 0.11174977
-1942.1766 -416.74908 -0.28188223 0.098407455
-886.61084 172.52063 0.62602633 0.21911536
-2376.458 -225.31567 -0.065347001 0.031030273
-1673.816 292.48065 1.2516212 0.036653645
-1765.4403 -381.52881 3.476156 0.17522608
-2056.376 -417.82681 0.53607446 0.17536758
-2338.1829 198.02505 -0.080609083 0.017374676
-1423.5822 -410.41983 -0.10996637 0.12955616
-2181.2793 298.87506 0.32867217 0.036374919
-2077.054 -401.19998 0.9365173 0.25524902
-2145.9512 289.64871 0.81198698 0.15637963
-2100.884 271.60144 0.52799803 0.11980183
-2140.2747 289.05612 1.1017969 0.17106934
-1059.5662 -390.46201 0.79871738 0.048876952
-1968.9684 -382.78638 -1.095964 0.029541016
-881.4198 189.01596 0.53715986 0.0546875
-2093.0796 271.77451 0.31303141 0.16570173
-1048.495 -393.62024 0.3958742 0.13444714
-2303.2114 -296.63269 1.0650706 0.17527261
-1203.2581 330.42206 0.25430799 0.024558738
-1708.4506 327.17203 0.93714947 0.13114269
-2129.5889 290.18509 0.74065471 0.30174154
-2060.0415 -398.539 0.15173027 0.001953125
-1492.4326 -411.62311 0.29630291 0.023573931
-1987.5154 -417.78784 0.69237912 0.16827218
-2108.5764 293.27277 0.0031763501 0.20275879
-1028.2581 -387.32501 1.078231 0.0040212027
-1429.7422 -377.15649 -0.09351372 0.41019163
-2085.4275 285.89645 0.93685335 0.072021484
-2167.8984 321.84192 1.1626607 0.030473759
-1907.0605 -389.69931 -0.023470733 0.036621094
-2155.439 320.72397 0.35044146 0.26606399
-2412.5942 -7.5692649 0.26798353 0.36452225
-1474.455 -410.64548 0.34949178 0.10917589
-2408.7173 107.74151 -5.572834 0.20849609
-2107.8118 300.42087 1.3226037 0.04744466
-2412.6292 -4.5221162 0.69605768 0.28981942
-1330.3895 -408.97498 -0.15155727 0.082176208
-928.26526 238.51689 1.9579509 0.13007732
-1144.267 332.05838 1.272668 0.0026041667
-1627.5424 318.10641 1.0244164 0.001953125
-863.65497 -7.0722151 1.0896523 0.058105469
-2411.0046 -221.94328 1.0478132 0.01850586
-1639.8831 328.35696 0.61025023 0.097866952
-936.74866 248.15318 1.1675065 0.21279879
-1635.4384 329.05029 2.3444085 0.015799386
-1000.3621 -381.47906 0.67499048 0.045703124
-1759.5052 -380.90472 -3.8898606 0.029221598
-863.9032 -1.2805209 1.3904495 0.083129883
-1870.4568 -387.73508 -0.39770386 0.025755525
-1450.3928 -407.10916 0.28685051 0.034327
-1805.2322 -415.25653 -0.2075029 0.090332031
-945.72833 257.26489 0.52734512 0.38300759
-1516.4738 -377.72324 1.2456303 0.017874125
-1864.3276 -387.61191 -0.42913398 0.023533529
-2353.9836 -235.36992 1.2125069 0.024133513
-2413.5249 -208.52036 1.1297269 0.11662778
-1582.5593 313.2926 1.0882052 0.16110221
-1793.4258 -415.13626 -0.31707317 0.056152344
-2412.5823 12.365961 0.44249377 0.20778438
-1080.3064 323.25092 0.79847574 0.12097168
-1079.7388 322.84915 0.21434721 0.074462891
-1279.6891 -409.0968 -0.30352637 0.1131916
-946.13904 -331.89725 -0.26664397 0.45714992
-2059.4626 308.27606 0.26759064 0.16881073
-1594.9723 329.10504 1.0825684 0.0072021484
-2035.5615 299.9368 1.3051132 0.23501208
-1468.5291 -381.47302 1.9513553 0.3380197
-2011.2478 293.06 2.0554903 0.037597656
-1471.4695 -377.13559 0.63175142 0.042268343
-997.62396 297.5267 0.25361031 0.42471668
-1046.2168 320.63745 0.43535775 0.17749023
-1029.3008 313.94037 0.68134749 0.24707031
-946.45496 -322.3985 -1.0722046 0.03631844
-1000.6244 300.88425 0.76294392 0.0070626396
-1027.587 313.17303 0.65200734 0.22993977
-1252.6116 -408.7435 -0.10925417 0.40041277
-1019.349 309.31369 0.37322152 0.28370622
-1741.6896 -414.3978 -0.11595217 0.081651479
-2412.4014 34.56155 1.4070599 0.54782653
-1566.0962 330.00494 2.1791825 0.0068359375
-866.86456 31.525717 0.44812688 0.058886718
-1934.5717 -386.99286 0.096482821 0.21523437
-1924.4683 -389.25943 0.3592898 0.053720355
-1879.311 -405.03137 0.51708126 0.0024414062
-1552.8051 330.27463 1.5656996 0.084960938
-1507.5298 314.56247 0.56667191 0.33131248
-1477.5168 300.80334 0.36803561 0.21874259
-1504.5172 314.55148 0.75270587 0.26874796
-1454.908 291.9455 0.093187146 0.15087891
-1543.5004 330.20938 1.015038 0.15039062
-1471.5094 300.92831 0.30878985 0.28196588
-1539.9011 330.18292 0.9509154 0.148298
-1986.7985 305.84933 1.3930465 0.32697755
-1537.4982 330.16208 1.0033994 0.17369495
-1343.577 -409.56598 1.4717038 0.022460938
-1491.8369 314.51541 0.13750009 0.17154948
-1836.5786 -415.32596 0.35057443 0.084289551
-1531.3185 330.11893 0.69499439 0.27759454
-2238.9248 -402.34702 -0.38326931 0.25767517
-1486.4081 314.47781 0.4644554 0.18945312
-1955.2588 294.94879 1.9055352 0.065389
-2242.5715 -401.00281 -0.090342291 0.29881838
-923.32538 -308.936 -0.02544336 0.090332031
-2255.3821 -395.66415 -0.30047306 0.41978359
-1978.6497 307.2825 0.066326715 0.14648438
-1456.3187 304.59235 0.43365261 0.10131836
-1318.6165 305.17834 -0.2951155 0.18427967
-2379.4817 -115.62411 -0.10922437 0.53199261
-1814.8059 -415.37344 0.0070760995 0.109375
-1870.5668 325.27798 -0.18593438 0.18150713
-2023.8534 333.19119 2.8851197 0.088078819
-1864.0392 325.30917 -0.14334439 0.39974412
-1306.5034 -408.5654 0.27240914 0.116285
-868.93146 60.962116 0.23325627 0.11259766
-1303.4694 -408.47897 0.14785914 0.11240234
-1431.781 303.34741 1.9218645 0.078613281
-2382.603 111.40161 -0.085442767 0.014055525
-1990.1343 324.09998 1.3595864 0.056396484
-869.06543 64.795464 0.28737596 0.090839095
-1796.1096 -415.17084 0.083452985 0.076904297
-1427.7054 305.97174 0.78007787 0.062255859
-1243.2968 -374.70212 -0.011536965 0.18033855
-1852.5602 -387.4754 0.03523824 0.33120289
-2411.9739 70.937729 0.94201583 0.29794213
-2379.345 -104.98916 -0.20722699 0.34033203
-2297.623 244.73566 0.8718282 0.023216834
-1838.1481 325.70166 -2.5401568 0.05130719
-1968.5845 324.21466 1.6625788 0.00390625
-2379.0459 -96.104385 -0.13562621 0.40344238
-1280.8044 -405.03253 0.25145894 0.020019531
-1836.7081 -385.24515 0.165066 0.35495335
-1405.7568 306.74597 2.2495599 0.012410482
-1138.9277 -405.37451 -0.25804919 0.36972067
-1258.7897 303.19647 -0.46569657 0.34230143
-1608.1797 340.46826 3.1417649 0.032104492
-862.09064 -133.74013 0.8348003 0.071536221
-1741.4252 -413.97412 1.2898879 0.084526911
-1359.3301 304.88873 1.9738559 0.072265625
-1279.886 332.9418 -1.3116703 0.039160155
-866.26587 97.770012 0.072336674 0.099772133
-1409.9115 332.13367 2.5879512 0.027099609
-2270.5264 -390.05954 0.83486176 0.020507812
-2180.9761 287.98441 -0.65181905 0.27897134
-2239.0256 -402.32101 0.30751276 0.22700103
-2266.4163 -392.17462 1.117614 0.0089111328
-2230.3145 -405.40839 0.31649664 0.18793945
-2236.4585 -403.25958 0.19762589 0.21205428
-2263.4373 -391.95624 0.48519692 0.24165103
-2269.5896 -388.96616 0.47422329 0.1985677
-2233.8142 -404.19992 0.3049764 0.20502387
-2217.2395 -409.4072 0.57950163 0.13671875
-2287.2405 -379.15482 0.20042354 0.10522461
-1741.2936 323.99118 -0.82252181 0.015258789
-2279.4016 -383.77332 0.56868905 0.14916992
-1702.0366 -410.69611 0.28894326 0.044530794
-1273.3448 -374.66953 0.79409933 0.024855779
-2213.6475 -410.7023 1.2393364 0.26083374
-2378.1208 -117.20142 0.63632774 0.0390625
-2289.769 282.5177 0.87231582 0.0052813571
-1291.2352 296.98132 1.3828515 0.027223984
-941.59003 -291.35947 0.54122883 0.071818031
-937.26178 -293.04007 0.44708163 0.25195312
-2021.3815 333.29086 3.1351633 0.018229166
-938.37628 -288.02011 0.91103077 0.064941406
-2251.135 273.42233 0.67750859 0.080336913
-2377.8545 -110.50256 0.23802519 0.040161133
-1150.6556 -414.31747 1.0776745 0.1143392
-2218.5298 262.96155 0.14327866 0.06660156
-1213.6923 332.58234 -0.98898298 0.13721839
-1210.714 332.54407 -0.24915147 0.11848959
-1279.3953 303.26248 0.18015899 0.29109702
-2217.678 267.54538 0.06856063 0.38616943
-1059.7396 -389.44492 -0.19060497 0.048713453
-2390.9253 -257.91104 -0.21713179 0.2538276
-1270.5118 303.14294 0.2687431 0.26442081
-1246.3666 295.88004 1.4892491 0.020609537
-2367.8113 -319.01978 1.4947399 0.0084472653
-1660.4077 312.58588 -0.15541847 0.22709101
-867.33325 -25.519661 -0.22959253 0.22225894
-2203.3879 -388.13943 0.4560498 0.016017539
-2182.5632 318.84372 -0.27615511 0.19771352
-2401.6873 136.44818 2.0665972 0.31339175
-877.13403 142.46378 0.40510947 0.15714821
-2113.6047 293.14841 -0.22703062 0.35763964
-1702.8921 -380.23944 0.90181828 0.013861421
-2110.4927 293.26465 -0.44447631 0.23035108
-2107.519 293.28214 -0.31816053 0.19587673
-2375.9858 -89.525757 0.1060847 0.001953125
-2095.6196 293.33261 -0.35872349 0.12281151
-2112.0054 300.71826 -0.49911475 0.027636718
-2372.6594 -24.459106 -0.34334323 0.033403229
-2095.4153 -417.98758 0.38743806 0.27896106
-2107.5549 305.59811 -0.47174197 0.13224992
-1321.9918 332.7366 -0.12072032 0.15999348
-1255.4652 -374.61926 -0.34600312 0.43488422
-2275.9475 300.66058 1.228188 0.08234375
-2215.9346 -409.71533 0.28403395 0.13857421
-2260.2766 -393.43643 0.47183999 0.29535529
-2084.9058 294.62448 -0.076358654 0.020507812
-2376.6533 -70.275497 0.61661953 0.052652996
-1768.5294 327.26492 1.7212646 0.0058307666
-1444.4338 -410.35068 -0.088878602 0.1711839
-1264.479 333.37366 1.2057325 0.007393539
-1438.4559 -410.4447 -0.18059644 0.31428248
-1714.3876 311.65622 0.46482673 0.14772764
-1432.4998 -410.4397 -0.16612132 0.19161031
-2098.0635 -399.71664 0.83643275 0.05078125
-2389.2927 162.86089 0.097357705 0.31731305
-862.85938 -49.931335 1.1495938 0.1538703
-2387.6575 166.80815 0.16501568 0.35647517
-2036.8512 -417.90948 0.33569768 0.40608725
-2104.5159 271.58514 0.6084621 0.14786042
-2143.3289 288.8501 0.82781398 0.18408203
-2098.0107 271.823 1.2419994 0.21081543
-862.91321 -38.808277 1.1440208 0.14463949
-2020.4216 -418.85745 0.77112156 0.0074191624
-900.54749 200.0993 0.65251869 0.10342684
-2134.4844 289.99286 0.57124674 0.31393746
-885.76154 -244.5107 0.33480793 0.254547
-2322.4392 -286.38947 1.0576315 0.01171875
-2199.1245 318.02567 0.86729455 0.0056216461
-1801.6447 311.59457 3.2010758 0.13191885
-2085.949 271.67499 0.89599705 0.10763114
-2017.5625 -416.9072 0.19987276 0.25261742
-1441.4736 -377.27863 -0.43416145 0.39405239
-1802.5797 -382.80109 -4.6357689 0.39993206
-2129.4666 302.86597 0.15577927 0.29790869
-1047.1211 -380.845 0.17441382 0.026748657
-1480.4105 -411.28287 1.0446495 0.023381377
-2127.0466 303.01562 0.80942035 0.24477538
-2409.2913 104.26774 -5.7852383 0.216005
-2095.6362 293.28613 0.041492723 0.026566619
-1978.5475 -416.82632 0.028789457 0.10644531
-2086.5559 290.10361 0.65946692 0.18717448
-2373.8452 -26.088556 0.20180182 0.1148797
-2372.488 -24.593674 0.30923334 0.10084364
-1339.5726 -409.15707 -0.10025777 0.091748044
-2397.5117 148.97708 5.0977435 0.21449497
-2086.519 293.06409 1.414109 0.026367188
-1966.6106 -416.9679 0.070167601 0.12206514
-2311.9373 230.70799 -0.079481483 0.045911998
-2080.9319 293.21298 0.75556982 0.15556899
-1454.8859 300.95471 -0.017089963 0.16455078
-1459.7015 303.37894 -0.061352581 0.14294434
-2396.6865 151.1864 5.7767177 0.19506367
-1648.564 328.36923 0.87068868 0.22197041
-905.78741 9.397892 1.668077 0.010742188
-1947.7789 -417.24408 0.88146937 0.013950893
-2002.4607 323.38611 -0.11936559 0.37124255
-1083.1073 311.44589 0.77061343 0.7335549
-1999.4052 323.43326 -0.1319809 0.34280401
-864.96936 -1.7002028 1.089728 0.039433673
-1810.7322 -414.87579 -0.13834827 0.10786161
-905.76208 16.771122 1.9666812 0.020393882
-1807.6633 -415.29007 -0.26059836 0.094970703
-860.6676 -2.3531282 1.0660369 0.065778457
-1867.7687 -387.84589 -0.11177576 0.025775332
-1592.1443 313.83609 2.0282431 0.17007612
-997.53192 -378.83423 1.3364868 0.043701172
-1802.2048 -415.2258 -0.27425772 0.090087891
-2375.9695 -225.02081 0.023717523 0.010986328
-1930.3489 -416.66055 0.24039559 0.13724588
-1945.406 308.46893 -0.22196256 0.41972736
-1855.1677 -387.34787 -0.23128396 0.024681091
-2366.2756 -226.57169 0.40349853 0.13150188
-1123.8442 339.93304 1.1283411 0.051632673
-1099.3268 331.68616 0.171233 0.26874188
-949.42633 -331.23245 -0.76647329 0.27336246
-1100.155 333.38794 1.0578395 0.0090729892
-2037.3259 298.07245 0.071870469 0.22513428
-1614.7155 336.62827 0.82413906 0.036499023
-2013.1864 290.48798 2.4422073 0.32128906
-1405.2289 -410.14249 0.66041744 0.25618517
-2033.2424 300.00668 1.2875551 0.083837889
-2208.647 273.36188 -3.1547747 0.31519884
-1336.5361 -375.98792 -0.096901566 0.41520181
-1017.9203 308.60925 0.25125691 0.29713011
-1003.5207 300.96481 0.50175565 0.63595682
-1008.0272 305.13983 0.7084018 0.0092773438
-867.01294 -135.3119 -0.4079023 0.085205078
-1020.3622 311.69736 0.75926048 0.011230469
-1006.5546 304.23456 0.70487845 0.0024226261
-943.5542 -322.47568 -0.85023427 0.041126732
-1040.1425 318.42099 0.41430497 0.17789714
-935.33484 -321.67166 -0.22698177 0.22648555
-2409.8818 -71.277077 -3.0069363 0.22021484
-1660.496 313.12692 3.3943417 0.10373942
-906.04211 50.217888 1.072345 0.31835938
-2372.0242 -199.65074 0.40590122 0.044123646
-1237.8184 -407.72495 -0.059425473 0.094401047
-1861.4694 -416.07068 0.86098069 0.084228516
-1858.4496 -416.11523 1.0965368 0.071292274
-1510.5219 314.58923 1.1118567 0.38731095
-1550.0153 330.26883 1.0909503 0.14404297
-1455.1431 291.93146 0.32787156 0.22108154
-1546.4753 330.23904 1.2759172 0.12148438
-1474.5233 300.87277 0.15357478 0.27238634
-1501.4062 314.54602 0.55117196 0.22318892
-1451.6074 292.02032 0.28417698 0.077148438
-1498.1487 314.54407 0.50252086 0.19829644
-1944.5762 287.37595 1.3866084 0.16992188
-1495.4125 314.5098 0.55024099 0.18625711
-1320.0129 -418.45737 1.917477 0.012263997
-1534.2896 330.15283 0.6501503 0.22755386
-1786.369 -380.39941 -0.076821774 0.047070261
-1490.5398 314.53113 0.23747468 0.16577148
-2260.157 -393.5033 -0.22951826 0.37091613
-1528.4805 330.07916 1.0167357 0.36277321
-1774.5908 -381.81949 -0.2088135 0.47768721
-2017.5917 323.58902 1.0302755 0.14929377
-2221.5078 -408.19272 -0.16767032 0.14831543
-973.26874 -344.147 0.57162589 0.026672363
-2233.4573 -404.32437 -0.4121615 0.186754
-1936.2217 288.0574 0.39215919 0.11337426
-1434.0012 295.37695 1.1554579 0.062337238
-1381.8915 330.94781 -0.097455755 0.18682861
-2411.8413 -161.52817 1.3497596 0.11499023
-1876.5939 -387.87259 0.039491575 0.18082683
-1963.4291 308.4812 0.4443751 0.19253324
-2306.7192 235.9861 0.36547014 0.012711588
-2282.8005 284.84738 -0.25269568 0.44608283
-1937.4132 297.78723 1.6993111 0.15157063
-1306.4695 -408.52499 0.03337571 0.091308594
-1227.132 332.84744 -3.0185456 0.20898438
-1252.7334 -374.59644 -0.1004071 0.43086752
-1858.3813 325.37042 -0.52549291 0.37715665
-2412.3875 67.410263 1.2602389 0.47934482
-2011.8667 333.77133 1.4165972 0.045532227
-893.98138 189.43732 -3.588423 0.15753174
-1858.458 -387.15338 0.1515069 0.052937824
-1446.1545 313.03293 0.93082672 0.0703125
-1294.5012 -408.41486 0.32345313 0.18516412
-1790.3191 -415.1073 0.035830855 0.064453125
-2380.5442 114.38667 -0.0795644 0.016455078
-2411.7788 -148.6237 1.238837 0.13264973
-1780.6805 -414.76886 0.78002793 0.23317464
-1972.5693 324.43665 1.2976295 0.083214961
-1990.8929 334.70374 1.6478598 0.00390625
-2411.7549 -142.3725 1.3876042 0.13989258
-1144.7148 -405.69382 -0.23125866 0.42687005
-1473.9633 -379.85352 3.0840006 0.18908553
-1385.7356 297.05554 2.5709751 0.058105469
-943.66925 -327.62384 0.42087933 0.092464142
-1258.3136 303.18271 -0.38934785 0.33883464
-1816.4769 325.78613 -0.25115913 0.08663372
-2411.2266 88.464462 1.26196 0.46664175
-903.19183 -115.70218 0.94158649 0.36111358
-1606.8871 -411.99625 -0.24921584 0.076464847
-2173.2761 317.45514 7.6084061 0.25971681
-1340.0111 296.60983 1.9324975 0.030238666
-1258.1494 322.13083 -0.060503293 0.017289225
-1348.3187 305.86734 0.513201 0.36666647
-1429.6952 340.37976 2.3089263 0.056179471
-2248.9185 -399.95334 0.79157996 0.0025969329
-1777.7466 -381.74356 0.27268681 0.50168765
-2238.9211 -402.36911 0.35780907 0.2705892
-2244.4316 -401.85345 1.0261256 0.0077427458
-2251.5842 -397.29202 0.48370662 0.55469149
-2277.9463 -384.60999 0.38732404 0.16566297
-2242.5652 -401.00974 0.38510376 0.29665089
-2227.4602 -406.36603 0.25222218 0.16398926
-2276.3296 -385.47409 0.47538272 0.16523437
-2282.1123 -382.23917 0.96112943 0.10579427
-2267.7878 -389.8739 0.17719896 0.20323351
-2290.5664 280.95673 0.44488746 0.27376008
-2279.5657 -383.69894 0.69035941 0.14530437
-1267.837 -375.01389 0.12905858 0.3975291
-1190.1105 -408.00125 1.924209 0.0009765625
-2056.4934 -418.67136 -0.14801455 0.24117282
-2420.825 -99.1427 0.63109946 0.011962891
-2210.917 -410.9537 0.2947782 0.12451172
-2374.6995 -118.30759 1.5731844 0.1105245
-1738.662 326.7789 -0.99341494 0.089253746
-918.68848 -302.33655 2.1212161 0.29438478
-916.64679 -300.09033 1.6440187 0.22167969
-2412.3235 -96.504959 0.39207983 0.026444869
-915.7923 -299.15344 2.4236598 0.25507814
-2170.4241 -418.10413 1.1082945 0.28827792
-2420.6978 -92.657333 0.26735896 0.093505859
-1170.7162 -407.87057 1.4629476 0.024414062
-2381.5022 111.60363 0.39324847 0.06162896
-1284.5244 303.56744 0.11983579 0.22473145
-1283.842 303.49887 0.75760806 0.27563477
-1207.5165 332.52524 -0.7028749 0.084472656
-2239.1318 277.82718 0.012330029 0.038384333
-908.96143 -291.05661 2.8228474 0.14957683
-2336.7126 -338.60861 0.26188308 0.45496818
-1249.3706 296.76382 1.2739836 0.029168023
-1236.8175 348.75183 -1.0564423 0.043619793
-2346.4678 -327.72437 0.072415285 0.16509172
-1837.9027 332.40964 1.0097581 0.063489191
-1239.3669 296.34845 0.6642949 0.050549388
-2005.613 -416.3974 -0.20973189 0.26978803
-2355.6978 220.18755 7.2839975 0.0088867191
-2410.3518 94.623268 -8.4390574 0.19231306
-2412.3762 -19.289587 -0.034396168 0.28720927
-1816.6586 325.78644 0.20577838 0.072153129
-2133.2581 302.29623 -0.073012352 0.19558376
-1243.8842 300.36636 0.37802544 0.033180859
-2131.469 302.57883 -0.28261232 0.24348618
-2129.3984 302.88239 -0.13974589 0.32525414
-2116.4888 -418.85165 0.48652488 0.31240693
-2158.3481 320.49588 -0.10918212 0.27609107
-2092.5632 293.34674 -0.42533144 0.11255543
-2412.5615 -8.0828371 -0.12275784 0.14253744
-1960.418 -417.08673 -0.86537391 0.19886115
-2086.739 294.41006 -0.55925626 0.014648438
-1456.0847 304.73267 0.86081743 0.11474609
-2110.6033 293.26114 -0.39539587 0.23135038
-2107.4124 293.28033 -0.2718367 0.20306687
-2104.6326 305.73587 -0.29465348 0.12942553
-2389.3804 -6.8344212 -0.15134358 0.010498047
-2131.4165 322.48813 -0.29695499 0.30098528
-1009.6324 -376.83838 -0.25369763 0.40460703
-1720.4181 311.55347 0.51550609 0.12038037
-892.84637 -262.28299 0.91443098 0.075511001
-1756.8136 327.25522 1.0519545 0.0067830398
-870.85541 -48.326229 0.96997917 0.050998263
-2057.2888 -418.33295 0.56844628 0.025024414
-1762.63 -381.95654 3.3695757 0.33828667
-904.12524 -31.617449 0.20322002 0.51121265
-2366.8518 -224.48494 -0.11608323 0.1516701
-2077.3115 -400.52277 1.0202818 1.9995117
-2145.8879 289.57547 0.91714191 0.37037963
-2102.5063 271.59171 0.61597288 0.13857421
-2140.3413 289.03064 1.1468946 0.10723877
-904.48163 -18.228071 0.2361552 0.30436197
-1969.0006 -382.54776 -0.97732478 0.025092231
-881.28754 189.0874 0.68754435 0.13574219
-2091.3701 271.63339 0.30861342 0.091003418
-899.73016 198.57878 0.36515826 0.14270833
-2303.0989 -296.7247 1.138661 0.27888998
-2410.5964 27.259155 -0.3751753 0.064383052
-2409.0896 -189.73663 -0.25224039 0.14805211
-2129.5781 290.19769 0.80813926 0.30623737
-2060.0835 -398.57175 0.22060229 0.001953125
-2116.5928 292.85516 0.12954397 0.37525716
-1036.4723 -389.22214 0.35036936 0.20609584
-1489.5712 -411.39587 0.86661029 0.019534033
-2107.5063 293.27304 0.025872592 0.18597256
-1690.5375 335.40704 2.1960361 0.075857982
-1429.4934 -377.26489 -0.32301161 0.52715653
-2085.9255 285.92908 1.3957208 0.05759006
-2400.333 145.29861 4.8573346 0.0034179688
-2158.5229 320.48239 0.3721109 0.31354076
-1843.5472 -415.62601 -0.12027824 0.36965731
-2108.4324 299.38864 0.9158569 0.015136719
-2348.7659 -257.59781 0.76206475 0.092725396
-2412.5669 -8.5722942 0.35875386 0.37137857
-967.375 -349.1481 -0.17077661 0.17971599
-2408.8369 107.00856 -5.7127514 0.23527019
-2107.7751 300.14722 1.4171336 0.23665364
-1831.4899 -415.51633 -0.19041401 0.32306001
-1475.0259 -407.65997 0.21721728 0.091180064
-2355.676 -247.04692 0.56999183 0.20543604
-1516.3317 329.6626 -0.047495171 0.13790245
-1479.7202 314.49963 -0.12300243 0.1476237
-2412.5244 55.414799 -0.33157378 0.13564634
-1627.5293 318.02621 1.1222628 0.84765625
-863.7851 -6.6618481 1.1346612 0.04284668
-1534.5106 -376.99066 1.7367939 0.21611758
-2137.4055 322.58679 0.41283354 0.28363252
-1446.5099 305.81424 -0.0013225079 0.19091797
-2134.3787 322.74225 0.45098689 0.24058947
-935.35437 246.6254 1.3095196 0.20427434
-1447.4629 -410.6001 0.59932035 0.37786207
-1462.0033 313.0228 -0.53862315 0.15326606
-1870.5598 -387.75266 -0.1903002 0.028084312
-948.33215 257.65076 0.45260623 0.29348132
-1803.9171 -415.25656 -0.13730381 0.091145836
-1954.5876 308.50916 -0.090288199 0.18722868
-861.04504 2.9978247 1.0830153 0.048339844
-1864.3752 -387.62943 -0.20620634 0.052915912
-2354.6931 -234.16599 1.2218113 0.067507319
-1795.5562 -414.19028 -0.12460292 0.11415181
-2080.3267 308.23062 0.42110607 0.10122958
-1793.6638 -415.16589 -0.18174717 0.07421875
-1852.3507 -387.39886 -0.38118187 0.046309039
-1579.8634 317.43509 0.65388149 0.0062255859
-1079.7136 322.84521 0.28069451 0.045654297
-866.99207 13.572636 0.53385204 0.023193359
-1597.538 329.60544 2.5121641 0.089963198
-1480.021 -378.29279 0.22286358 0.35741553
-1594.7603 329.68811 2.5576956 0.081597224
-2036.673 299.91321 1.2912896 0.62109375
-1270.5081 -408.98398 -0.23961073 0.15098186
-2210.115 272.28787 -3.2404337 0.32186109
-2011.2285 293.04877 1.9749418 0.057714842
-2331.8083 211.31804 0.25487456 0.091001011
-866.3606 -139.49338 -0.26490262 0.27276379
-997.62299 297.52579 0.29372391 0.41860732
-1023.952 311.50998 0.51459539 0.23858643
-989.35925 294.07446 0.70877558 0.018717447
-905.63776 40.305355 0.45194364 0.35456252
-1042.0303 319.13641 0.75414503 0.16464844
-1026.6422 312.75299 0.71875972 0.24816895
-866.79858 -136.49237 -0.21476194 0.23739004
-1019.3213 309.30344 0.49177364 0.2880927
-1564.411 329.42102 1.6248354 0.11425781
-1965.9442 -377.81326 0.16543074 0.012276785
-1930.4424 324.27191 -0.22059141 0.12620485
-865.41638 31.749393 0.57690716 0.13575962
-1930.4385 -389.15475 0.28630394 0.090353556
-978.31 -356.81409 0.54303116 0.11767578
-869.46222 94.488556 -0.3112213 0.1865117
-1309.1155 -374.98831 -0.0077871941 0.080566406
-1551.9303 330.26212 1.6221699 0.090169273
-2272.8164 260.30011 -0.074575916 0.009765625
-1507.5275 314.55884 0.61712521 0.31495634
-1477.822 300.79462 0.41234925 0.17977905
-1504.526 314.53992 0.81056428 0.26222399
-1453.9569 291.94836 0.13963977 0.033447266
-1542.6337 330.19785 1.0324055 0.15039062
-1471.4991 300.92685 0.36154845 0.10225666
-1540.4275 330.18344 1.0151916 0.16449653
-1986.6764 305.80643 1.5492927 0.26745605
-1537.2443 330.15808 1.0472373 0.17152235
-1341.7559 -409.56494 1.5656755 0.0087890625
-1492.8168 314.52039 0.19122525 0.18609619
-966.44855 -348.31299 0.49010882 0.15748426
-1531.5221 330.11978 0.75270212 0.28930351
-2238.9863 -402.3226 -0.33460829 0.23869397
-1486.6145 314.50436 0.57086372 0.14215088
-1411.3876 -377.07898 0.28165087 0.24286884
-2037.7354 332.92996 2.8240623 0.044026691
-2242.4861 -401.03125 -0.013729244 0.33993426
-870.62805 109.45252 -0.92371941 0.1309344
-2255.3696 -395.66956 -0.2498254 0.45603237
-1979.6128 307.87003 0.065400362 0.065429688
-1825.5139 -415.61957 0.67919201 0.14265132
-1434.0372 295.35602 1.2752116 0.068969727
-1318.5326 305.21567 -0.13125116 0.20535786
-1690.3953 -413.66861 -0.24862616 0.095001802
-2379.4866 -115.62152 -0.042719807 0.55329388
-1813.4768 -415.34711 0.055177055 0.11909179
-2025.9677 333.25299 2.881264 0.11438358
-2411.0835 -100.41965 -0.53116846 0.42867896
-2393.8232 158.50861 8.1387043 0.12632059
-2252.311 272.07407 -0.047764573 0.01482891
-1957.4797 308.53351 0.4236654 0.17247252
-1255.3867 -374.62631 -0.2208036 0.47473142
-1300.5543 304.6879 -0.20287855 0.5540778
-1303.3956 -408.45514 0.40974551 0.1111084
-1930.4163 299.90259 1.7954187 0.083019592
-2418.186 -90.588905 -0.29203632 0.047732618
-1989.6904 324.09433 1.4534819 0.0051269531
-1434.7354 306.20514 0.16808587 0.2570343
-1795.443 -414.89548 0.84633863 0.12887092
-1427.4821 305.06894 1.302773 0.10025024
-1244.0266 -374.46899 -0.30941328 0.19389649
-1852.2515 -387.41754 0.12753044 0.26019228
-2411.9314 71.830925 0.34660208 0.10717773
-2379.3345 -103.67072 -0.17697956 0.4291679
-1282.5071 -408.26654 0.54898059 0.24185048
-1930.9214 308.96307 0.26766324 0.19181761
-2269.5122 291.60049 -0.13897468 0.22581953
-2379.1113 -98.224327 -0.020058436 0.0065220422
-1267.6292 303.50275 -0.31372482 0.39283082
-1141.4861 -405.51706 -0.2443665 0.49241894
-1405.8634 306.71912 2.4998808 0.01903557
-866.49951 -142.2097 0.39332199 0.24108274
-1321.6937 332.72433 -0.020086356 0.16170247
-1951.4916 324.56573 1.1012288 0.1173335
-2284.7554 253.28934 0.37471989 0.03039672
-2388.1179 80.147728 0.213835 0.39084592
-862.125 -133.31731 0.86788803 0.060287233
-1243.5331 -407.71237 0.42316765 0.093127325
-2274.7725 256.78348 0.20009011 0.046471715
-1359.4031 304.90472 1.9778366 0.0078125
-1351.2257 305.96689 0.56510371 0.30911431
-1328.5068 296.97845 1.1143334 0.02907986
-1408.8798 332.19992 2.666503 0.001953125
-2270.6404 -390.06918 0.90504986 0.011474609
-1279.6532 -375.13791 0.092587516 0.57773685
-2260.3044 -393.41812 0.52339089 0.35386452
-2266.3535 -392.24121 1.1871921 0.011962891
-2272.21 -387.65442 0.56478494 0.17825966
-2257.5344 -394.68265 0.36142737 0.42276379
-2220.9233 -408.35547 0.2785548 0.11648995
-2248.8271 -398.45673 0.413674 0.43223551
-2232.2832 -404.73886 0.30379823 0.1944987
-2218.3481 -409.09396 0.73528761 0.081787109
-2224.5493 -407.31021 0.028626308 0.16030273
-2273.7673 -386.85596 0.11178659 0.18972439
-2215.4563 -409.83798 0.39227161 0.14521484
-860.04596 -112.75249 0.48815939 0.047294419
-921.58929 -305.40228 1.9444101 0.29460645
-1693.4459 -413.70044 0.25795498 0.081745304
-2378.0962 -117.26212 0.70908326 0.066162109
-1555.7656 -411.70636 -0.79518288 0.081576616
-2415.3538 -100.3604 0.28171492 0.0024414062
-1873.4454 325.53262 1.6612153 0.18984881
-941.37775 -291.55496 0.50678194 0.074007601
-937.23773 -293.07031 0.44875166 0.25390625
-1543.3694 -411.66867 -0.56505775 0.10685075
-938.62579 -289.69525 0.70349807 0.07856445
-2035.2542 -418.69083 -0.37968901 0.12273886
-2175.061 -416.56738 0.86160517 0.19946289
-2377.874 -110.52267 0.35886526 0.017578125
-1150.9604 -414.36874 1.1984748 0.083677188
-2416.8755 -91.0009 0.069812045 0.024719238
-2143.4539 289.61728 -0.048647158 0.20912679
-1213.4883 332.58835 -0.7822172 0.13606063
-1261.2076 296.5459 0.35035145 1.3774414
-1279.425 303.25644 0.29002368 0.30483398
-2217.6223 267.5946 0.17811412 0.39111328
-1255.0693 295.82211 1.3218477 0.16513672
-1513.6477 -411.14771 -0.22674878 0.38351932
-1270.479 303.1503 0.59579515 0.26932466
-1247.1085 295.90265 1.6161681 0.021484373
-1504.6676 -411.67664 -0.21467079 0.41361201
-2354.9636 218.93352 6.3235302 0.21752115
-1822.8792 325.81967 0.42415836 0.078443691
-2027.4535 -405.93192 -0.47473186 0.084360763
-2395.6541 -247.18947 -0.06093879 0.14882457
-2401.6934 136.42563 2.127856 0.2823157
-1758.3389 -415.06851 3.0353508 0.032389324
-2179.5449 319.18085 -0.25325611 0.17897151
-2113.603 293.15231 -0.17481591 0.36310044
-1648.786 312.7674 -0.164342 0.16896138
-2131.478 302.57422 -0.23468281 0.24532697
-2129.4255 302.87619 -0.096023567 0.3106932
-1981.3864 -417.79941 -0.24052218 0.42836943
-2098.6208 293.31857 -0.31784388 0.14031433
-2349.8757 -256.11353 -0.1501447 0.17734693
-2112.4021 300.47739 -0.041949559 0.095850028
-2372.6218 -24.516947 -0.081475921 0.033784412
-1980.8676 -410.34302 -0.68864709 0.021484375
-2107.5913 305.58771 -0.37001717 0.12230384
-2133.2593 302.29239 -0.024867581 0.18891834
-2084.8772 294.56631 -0.18499254 0.011962891
-2376.5723 -70.310852 0.72214884 0.11889648
-2091.3076 305.9158 -0.50097895 0.19423313
-2412.3975 4.5276437 -0.20906524 0.3878046
-903.74103 -40.54081 0.36994272 0.45881826
-1762.5289 327.24283 1.3991591 0.0082977461
-867.32178 4.3414221 -0.15163749 0.17304729
-2119.4417 322.41678 -0.37263501 0.30914259
-951.92596 263.12729 -0.18905757 0.46058485
-2097.9924 -399.52618 0.90439236 0.026692709
-1429.531 -410.43109 -0.14337428 0.14791702
-863.29852 -49.801853 1.083105 0.13914382
-2039.9113 -420.00867 0.79161161 0.0014648438
-2035.3931 -417.89877 0.39753655 0.35673347
-2104.3887 271.59128 0.70437455 0.12142605
-2143.6538 288.81256 0.87794602 0.17462158
-2098.4888 271.79086 1.3240992 0.17018926
-862.62335 -38.800877 1.1821464 0.11607493
-2020.5793 -418.84637 0.85026586 0.00733724
-901.00415 200.92535 0.70440376 0.082519531
-2134.4043 289.99789 0.61756897 0.31579262
-1212.4847 333.19699 0.22953703 0.046305757
-2323.9282 -285.42651 1.0914738 0.0080566406
-2392.1846 -256.18875 0.97905028 0.13216886
-1885.5131 -416.39124 -0.18844165 0.15384024
-2086.5618 271.67368 1.0040623 0.098083496
-2017.5869 -416.88651 0.27130333 0.23129128
-2179.2534 318.42743 2.0898232 0.36433825
-860.79761 -24.817301 1.1676382 0.061494242
-1437.9838 -377.29831 -0.081327923 0.23796736
-2129.4624 302.86642 0.20177332 0.30012718
-2105.8989 293.64014 1.2256627 0.25671387
-2089.4294 285.922 0.31328642 0.036425781
-1480.3894 -411.1134 1.1850055 0.023925781
-2127.908 303.08899 0.14333437 0.35169515
-2409.4231 103.38428 -5.7351508 0.21156821
-2349.8525 -256.1283 0.6891228 0.10423367
-1792.3701 -379.58493 -4.0748358 0.037754543
-2086.5544 290.10855 0.97046894 0.20458984
-1969.4293 -417.40454 0.48478416 0.036675017
-2372.8047 -25.027481 0.35358953 0.11200628
-878.60571 -226.25294 0.59630328 0.12442737
-2397.6958 148.47777 4.997015 0.21903171
-2085.825 292.93243 0.57323325 0.10963216
-1780.4349 -380.8674 -3.8341544 0.040195741
-1018.1492 -382.34821 0.36694816 0.10288019
-1957.4573 -417.49747 0.4170894 0.044893119
-1651.6133 328.23807 1.187439 0.064165302
-1615.564 313.67911 2.0400641 0.23913015
-2422.5381 1.4692076 1.5154624 0.12868029
-1648.4991 328.35507 0.97179383 0.22336292
