# .PCD v0.7 - Point Cloud Data file format
VERSION 0.7
FIELDS x y z intensity
SIZE 4 4 4 4
TYPE F F F F
COUNT 1 1 1 1
WIDTH 1089
HEIGHT 1
VIEWPOINT 0 0 0 1 0 0 0
POINTS 1089
DATA ascii
180.12448 -123.58911 0.20096479 0.068721518
159.79257 -111.88705 0.4410474 0.024458209
159.95995 -109.8623 0.08864183 0.019950669
160.08698 -105.77173 0.051088501 0.015462239
181.85367 -112.42599 0.086449705 0.069904387
181.97646 -109.57337 0.088659465 0.066456102
181.9864 -106.42712 0.36616132 0.068282582
-215.89925 -84.699081 0.46334571 0.12524007
-215.7373 -82.127533 0.46762571 0.15677761
-215.18422 -79.636246 0.46256268 0.14975926
-214.4527 -76.684258 0.31193572 0.10854881
-212.83498 -72.520271 0.61532634 0.11021084
-189.48462 -80.104347 0.28855538 0.36916158
149.03961 -133.43196 -0.1058348 0.025980633
178.91185 -127.45896 -0.27909446 0.069130883
179.71495 -124.98927 -0.28822356 0.067491986
159.34502 -115.11044 -0.090506494 0.023824057
159.73328 -112.6676 -0.082795046 0.015804229
159.92442 -110.83217 -0.13115765 0.012207031
181.99081 -110.66826 -0.3020874 0.28980362
165.84238 -91.437759 -0.42495149 0.51822656
146.11729 -80.905762 -0.48116678 0.12569174
168.72157 -141.88783 0.041620385 0.27376506
176.39676 -132.41534 0.32357004 0.0049555125
-159.93352 -207.83861 0.97518361 0.12601963
-151.11485 -212.57779 0.19630374 0.0664974
-136.93465 -218.00043 0.81331778 0.2479655
-142.90703 -214.79424 0.85024768 0.27254233
-168.25983 -201.51883 1.0140605 0.1842058
156.25128 -122.78582 0.59526759 0.024300396
157.87521 -118.71386 0.78995687 0.073269546
-7.5140014 -45.506626 0.35454988 0.12174479
158.32353 -115.99736 0.79632992 0.060339388
-16.203983 -41.158974 0.36243901 0.16180013
159.27377 -115.00468 0.43961531 0.016460117
180.8349 -120.48008 0.070179634 0.072845154
181.17068 -118.4685 0.20705539 0.068231784
181.57205 -115.53673 0.19600275 0.071895473
160.03525 -103.91017 0.052181046 0.020947266
159.88213 -101.79237 0.060741413 0.0095703127
159.68309 -98.718216 0.24437268 0.012451172
-193.3186 -94.838226 0.58799505 0.31101483
-193.13443 -91.107994 0.57573003 0.36386213
-192.60599 -88.260139 0.57095063 0.40084228
-192.17734 -86.431007 0.42134684 0.35932755
-189.97012 -81.994186 0.74981809 0.28491211
-212.52422 -70.424278 0.95313013 0.10186524
168.50098 -142.16301 -0.081900381 0.28051415
157.82451 -118.92439 -0.073511802 0.067715734
157.59067 -116.21561 -0.10343458 0.018798828
180.13458 -123.49762 -0.27104792 0.066969752
180.64349 -121.37354 -0.28013378 0.070604786
181.12587 -118.5932 -0.3089599 0.15848665
160.63455 -101.34665 -0.028196588 0.20442708
146.0208 -81.12294 -0.44974941 0.20996094
165.32288 -88.762161 -0.26993999 0.52096367
149.03433 -133.5475 0.086942993 0.022203777
154.87079 -124.26532 0.60132915 0.020460583
-140.63776 -216.69147 1.1002584 0.11328125
-129.21005 -220.24269 0.22161937 0.25561523
-156.84924 -209.60231 0.98372447 0.16710374
-162.98357 -204.99504 1.0276706 0.15563048
-149.39032 -212.21039 1.0966032 0.075683594
177.72406 -130.52066 0.083152868 0.067261919
178.92146 -127.4445 0.0807335 0.067522347
-27.810692 -38.840771 0.55756736 0.25732422
179.75607 -124.88313 0.078493215 0.069075599
-37.421608 -32.62487 0.52811444 0.51025391
180.17329 -123.42318 0.079707064 0.068226017
159.73033 -112.48377 0.11323415 0.01694175
159.95665 -109.68362 0.26351488 0.022692077
160.0867 -105.56195 0.24468583 0.059977215
181.85637 -112.42089 0.20038193 0.072959185
181.97815 -109.48793 0.1995444 0.069866545
181.98767 -106.3476 0.087119624 0.066915974
-215.88322 -84.705414 0.69593668 0.13968234
-215.69353 -81.876053 0.24997179 0.14062223
-215.18051 -79.642662 0.62256438 0.15815356
-214.44057 -76.686211 0.46943918 0.12471461
-212.82413 -72.520859 0.77107972 0.12917583
-189.3476 -79.899986 0.27476823 0.37774873
149.03868 -134.20145 -0.088490747 0.037236325
178.9209 -127.41647 -0.27806643 0.069776528
179.97354 -124.1563 -0.050110817 0.060546875
159.31564 -115.0935 -0.087723799 0.027171107
159.77052 -112.31995 -0.09073659 0.024560863
159.93816 -110.46088 -0.1286978 0.01752232
181.98489 -110.5979 -0.30031508 0.28859454
165.89803 -91.762672 -0.2767204 0.49821141
146.0448 -80.911255 -0.13993286 0.15625
168.51958 -142.13712 0.10330013 0.28569958
175.34773 -133.73634 0.068577677 0.069297448
-159.45306 -208.13599 0.74230063 0.14802411
-151.17345 -212.55252 0.37298682 0.1415869
-136.32188 -218.1711 1.1263317 0.17635091
-142.85944 -214.79651 1.1492203 0.023980036
-168.08633 -201.64594 1.1021264 0.21044922
156.33397 -122.81889 0.11821235 0.0036621094
158.21249 -118.67283 0.10637712 0.068575539
-7.534142 -45.642075 0.85325831 0.1105957
158.6095 -116.13116 0.091769435 0.0707305
-15.944546 -41.23698 0.72410917 0.10607458
159.35634 -114.93743 0.095157556 0.011515687
180.83879 -120.48059 0.18632405 0.070437036
181.17673 -118.42346 0.30856636 0.059558798
181.59584 -115.41036 0.31452411 0.043337304
160.03021 -103.96214 0.24803478 0.012524414
159.87671 -101.84027 0.25132301 0.01212565
159.71021 -98.7565 0.051092528 0.012797037
-193.16763 -94.921852 0.75932544 0.004231771
-193.1368 -91.320282 0.12521781 0.35600063
-192.44829 -87.95343 0.71377993 0.0035522461
-192.15724 -86.305305 0.57056236 0.36193985
-190.196 -82.492104 0.75611013 0.28609514
-212.52962 -70.410347 0.94319379 0.10901276
168.62654 -141.81487 -0.30361566 0.22975886
157.42241 -119.30949 -0.070048928 0.0037109375
158.56563 -116.15601 -0.08282961 0.054062616
180.12883 -123.54852 -0.27968946 0.069140039
180.61789 -121.47625 -0.281425 0.0696171
181.1131 -118.731 -0.29937044 0.10238776
160.60307 -101.60363 -0.018795693 0.25189885
144.97401 -81.961823 -0.17545289 0.015136719
165.2811 -88.553841 -0.3225846 0.51289469
149.04684 -134.32756 0.10339843 0.024668377
155.09363 -124.21549 0.10604648 0.023321243
-139.34856 -217.18811 0.21873075 0.20773655
-129.29422 -220.19995 0.54922557 0.23779297
-156.79756 -209.61342 1.2121181 0.13286223
-162.87283 -205.04813 1.2874819 0.069543459
-148.96834 -212.35286 0.24369627 0.29405782
177.73235 -130.50401 0.19915451 0.068053804
178.96112 -127.33072 0.19984742 0.06683594
-27.820608 -38.845451 0.9415862 0.24593098
179.77724 -124.81953 0.19929203 0.066408411
-37.445297 -32.55471 0.89836854 0.15307617
180.16356 -123.47457 0.20116198 0.06925229
159.69453 -112.55347 0.44980136 0.02048183
159.93402 -109.69103 0.53328323 0.020932786
160.06445 -105.37334 0.32456517 0.020900879
181.8849 -112.42248 0.31740317 0.016272184
181.98875 -109.37519 0.35305312 0.048004258
181.98727 -106.34591 0.19938308 0.068475083
-215.86913 -84.730888 1.0283483 0.1357252
-215.76923 -82.204681 0.23391618 0.11623882
-215.18164 -79.7183 0.94196171 0.16988398
-214.43427 -76.680824 0.62747169 0.15199438
-212.83136 -72.584152 0.99859643 0.13189366
-189.43103 -80.031845 0.2616435 0.36639908
149.04872 -134.05157 -0.48274398 0.045762807
178.95091 -127.33721 -0.27780476 0.068846636
179.74924 -124.86752 -0.28957355 0.067703947
159.5123 -114.0869 -0.10046667 0.0078125
159.75067 -112.4157 -0.087115236 0.029726582
159.93654 -110.49806 -0.1148876 0.013102214
181.98904 -110.30333 -0.31441301 0.29794544
165.86627 -91.564308 -0.10289925 0.5178405
145.81578 -79.800026 -0.15265971 0.13769531
168.70081 -141.91316 0.23403017 0.29049239
175.50369 -133.53981 0.20757639 0.07098797
-159.29922 -208.26109 0.35883778 0.13554661
-151.74847 -212.28032 0.59771097 0.19790272
-137.13535 -217.96513 0.20762734 0.20084636
-142.71225 -214.90973 0.21910183 0.26025391
-128.6217 -219.15875 0.24246038 0.20800781
156.24542 -122.82531 0.57796425 0.022754751
157.94386 -118.83028 0.74600005 0.074324876
-7.5511065 -45.644997 1.1528616 0.080810547
158.35983 -115.99588 0.82860798 0.061199363
-17.660139 -41.223492 0.78032863 0.071275815
159.30455 -114.92825 0.43930829 0.016689725
180.88464 -120.2201 0.073276371 0.068622008
181.16805 -118.42947 0.079239249 0.071014062
181.5562 -115.69539 0.081353784 0.06802015
160.01715 -103.65504 0.29187989 0.015342204
160.55005 -101.47308 0.94747019 0.10473692
159.67267 -98.727158 0.24343804 0.011328125
-193.25029 -94.940712 0.094291091 0.28954265
-193.14594 -91.311035 0.27435741 0.34921154
-192.4651 -87.694847 0.0046926192 0.32635269
-192.17932 -86.696655 0.71873295 0.00073242188
-190.80438 -83.782036 0.094563104 0.31033325
-212.5222 -70.427299 0.94441783 0.11182987
168.70815 -141.86395 -0.38156247 0.2860204
157.76335 -118.96342 -0.067369193 0.069886819
158.54689 -116.25849 -0.074638993 0.055826824
180.25905 -123.10539 -0.050532654 0.069091797
180.6395 -121.38952 -0.27967715 0.069657482
181.12872 -118.63623 -0.2934081 0.071610332
160.54739 -101.57556 -0.014359321 0.30388996
145.96135 -81.093971 -0.093214437 0.13769531
165.26372 -88.4627 -0.12620178 0.51121932
149.03046 -133.87418 0.28419155 0.033040363
155.09067 -124.1845 0.27890414 0.021630859
-139.31735 -217.18399 0.50136578 0.21909587
-129.13762 -220.23306 0.55098128 0.18359375
-156.62955 -209.77788 0.37062579 0.13886869
-162.83319 -205.13042 0.37141058 0.11099454
-148.99786 -212.31851 0.51421082 0.32425606
177.75313 -130.4371 0.079760984 0.065714508
178.95087 -127.34254 0.077925846 0.067863412
-27.811678 -38.880932 1.3113443 0.29333496
179.7382 -124.90542 0.080963641 0.066965751
-37.072105 -32.57169 0.16516846 0.453125
180.18719 -123.34159 0.07755471 0.067492306
159.8161 -111.83765 0.10633106 0.028468153
159.96088 -110.03986 0.091456339 0.031267732
160.07228 -106.4076 0.067170531 0.011653646
181.85641 -112.41359 0.086317778 0.07125403
181.96867 -109.48638 0.086638398 0.068268158
181.99159 -106.3478 0.36510199 0.068922319
-215.88254 -84.589737 0.14890558 0.13243611
-215.8019 -82.38932 0.30746466 0.10728181
-215.2543 -79.880508 0.1443038 0.11335208
-214.42027 -76.678055 0.94468069 0.1633521
-212.71883 -72.075798 0.14825363 0.10742188
-189.39969 -80.012787 0.18084697 0.37102559
149.08496 -133.3271 -0.30549935 0.020141602
178.93036 -127.38638 -0.28783062 0.070431076
179.73404 -124.90789 -0.28227255 0.068303913
159.35507 -115.01216 -0.08348354 0.012691826
159.79033 -112.16341 -0.081936426 0.026978279
159.96921 -110.03657 -0.12455503 0.013020834
182.0097 -109.49645 -0.30652303 0.28522238
165.90482 -91.768639 -0.3232412 0.48140952
146.00537 -79.798859 -0.14972746 0.12939453
169.18471 -141.3138 0.30162331 0.29144987
176.54541 -132.30225 0.32348067 0.0032694498
-159.28412 -208.24779 0.65308809 0.17116657
-151.0945 -212.57339 0.69852507 0.15813276
-137.06752 -217.96603 0.50466746 0.24414062
-142.74101 -214.87083 0.52538341 0.26481119
-128.60211 -219.12837 0.69901049 0.22875977
156.30876 -122.86237 0.12315825 0.0070800781
158.2467 -118.52911 0.10663311 0.061072297
-7.5473113 -45.630379 1.4622775 0.13818359
158.49025 -116.37397 0.096745364 0.056181405
-17.529875 -41.380001 0.3802619 0.018044211
159.32169 -115.0555 0.1001842 0.013856336
180.88916 -120.22125 0.18678401 0.066925973
181.19569 -118.26587 0.19590941 0.07211975
181.56491 -115.59858 0.19431148 0.072833098
160.05569 -104.27136 0.06383539 0.015584311
159.90135 -101.92077 0.071410604 0.014160156
159.65996 -98.569504 0.24653748 0.014660644
-193.2365 -94.728569 0.20305263 0.31829193
-193.15565 -91.311646 0.42573923 0.36284178
-192.67497 -88.710915 0.1367723 0.37242961
-192.10085 -86.329842 0.0051808446 0.32163784
-190.22108 -82.478622 0.11410569 0.36663377
-212.48836 -70.378036 0.32296279 0.038807463
128.9142 -213.0289 0.59736997 0.1798529
168.71111 -141.88789 -0.27838773 0.29442343
-197.9218 -41.724747 0.28738132 0.10660849
158.16556 -118.72987 -0.062052105 0.05243412
158.37222 -116.4095 -0.079875797 0.052400447
180.16971 -123.426 -0.2766498 0.069446944
180.65164 -121.36469 -0.040796038 0.071609132
181.14641 -118.51199 -0.29153904 0.07271491
160.57321 -101.60097 -0.0004157871 0.20861816
145.03625 -81.794243 -0.1843335 0.10668945
165.33629 -88.647606 -0.39748797 0.33634567
149.04819 -133.4055 0.47691905 0.032371014
154.95294 -124.19286 0.61327964 0.023070244
-139.44278 -217.12495 0.80949092 0.23612468
-129.22273 -220.18253 0.84916306 0.23339844
-156.61223 -209.76749 0.6610595 0.15378523
-162.77179 -205.14186 0.70418268 0.16636561
-148.90491 -212.32893 0.98596519 0.26958457
177.79279 -130.32552 0.19888215 0.069390908
178.95872 -127.34317 0.19799151 0.067223042
-27.880447 -38.867172 0.19818556 0.29231772
179.74022 -124.93319 0.20045476 0.063803189
-37.072727 -32.606632 0.52359676 0.54931641
180.17651 -123.39713 0.19924635 0.06717474
159.80168 -111.84772 0.27261269 0.022788396
159.96007 -109.71686 0.26292282 0.018326968
160.07065 -106.38705 0.44401994 0.013420952
181.85658 -112.39256 0.19924164 0.070858866
181.96527 -109.47649 0.19681604 0.071031928
181.98375 -106.26751 0.089298837 0.069280788
-215.87585 -84.577614 0.33143535 0.1430417
-215.75668 -82.208588 0.46415859 0.16194209
-215.41357 -80.536568 0.15092048 0.12412807
-214.46832 -76.690971 0.14318462 0.12291887
-212.86751 -72.521004 0.15422283 0.10879856
-189.48579 -80.122467 0.43601257 0.38154942
143.12013 -2.0984142 0.23020436 0.040493008
149.07617 -133.89589 -0.28566003 0.030916341
149.31052 -129.46341 -0.28348219 0.090077549
178.93672 -127.39455 -0.038809728 0.070065401
179.74135 -124.87962 -0.28772759 0.068290383
159.33119 -115.09779 -0.078403458 0.021759903
159.57521 -113.62069 -0.049538642 0.013061523
159.93948 -110.5312 -0.11504893 0.013586426
182.01331 -109.52115 -0.30109417 0.27751914
165.87817 -91.624893 -0.32189411 0.48940915
145.87105 -80.264221 -0.47807229 0.12369791
168.71927 -141.8631 0.021539811 0.28297624
175.68375 -133.3665 0.045217805 0.072329812
-159.27451 -208.22719 0.98234242 0.15697274
-151.62767 -212.2993 0.89724928 0.20185907
-137.08481 -217.94489 0.79231578 0.23502605
-142.76492 -214.83098 0.84236962 0.26692709
-128.6268 -219.09628 1.1512809 0.24194336
156.32391 -122.82251 0.28792793 0.017595563
158.03271 -118.6692 0.69881886 0.075512975
-7.5953879 -45.526653 0.3580977 0.061604816
158.26775 -116.31561 0.75416213 0.065327711
-17.539639 -41.307442 0.76288128 0.033007812
159.28937 -115.07899 0.27087924 0.016069103
180.93408 -120.22543 0.30166107 0.0016424006
181.35522 -117.3389 0.31898648 0.0023193359
181.59207 -115.30807 0.089493684 0.06890101
160.02582 -103.45856 0.2448281 0.014160156
159.87306 -101.8623 0.25399655 0.011523438
159.67038 -98.368179 0.050047159 0.015625
-193.27527 -94.921432 0.42094067 0.33384603
-193.16815 -91.310226 0.57768768 0.36697644
-192.40627 -87.439423 0.15089765 0.34983146
-192.16043 -86.481064 0.14205614 0.31452942
-190.27046 -82.596161 0.27452981 0.36128148
-212.53871 -70.370033 0.49060294 0.074374482
122.1109 6.1396084 0.22129928 0.28417969
168.66833 -141.93513 -0.1736248 0.28110677
170.11221 -140.27599 -0.49086744 0.14306641
158.09102 -119.30521 -0.049464464 0.10123698
158.37761 -116.23725 -0.07959526 0.051660541
180.17769 -123.41514 -0.043876361 0.067111351
180.63893 -121.40481 -0.28273782 0.069939315
181.16794 -118.42117 -0.29052556 0.072734937
160.57996 -101.52592 -0.0053489152 0.28470188
144.98146 -81.720749 -0.17174053 0.10681152
165.26558 -88.53125 -0.28051484 0.53293264
149.0786 -133.74954 0.089144863 0.025492931
155.98076 -123.28415 0.097141191 0.0083007812
-139.37341 -217.12762 1.1003157 0.25305176
-129.11327 -220.21346 0.85162836 0.23535156
-156.52855 -209.78198 0.97963244 0.18626881
-162.80183 -205.10719 1.028565 0.1664145
-148.04776 -212.72253 0.255532 0.38337412
178.02441 -129.93875 0.32049778 0.0019073486
178.93349 -127.40693 0.077840008 0.067064486
-27.918499 -38.849113 0.58860761 0.20080566
179.7457 -124.87247 0.080658704 0.066542305
-37.097408 -32.655819 0.88584971 0.29882812
180.18568 -123.5203 0.31825134 0.00095874228
159.79906 -111.78488 0.51587707 0.025286097
159.92918 -109.95502 0.52277797 0.019883303
160.07123 -107.76644 0.093988024 0.013718378
181.86046 -112.45826 0.31473324 0.058774717
181.98206 -109.2835 0.3385905 0.056414876
181.98549 -106.28714 0.20042451 0.068702899
-215.88985 -84.696793 0.46248904 0.1542027
-215.71007 -81.964027 0.23563372 0.13223924
-215.00357 -78.894051 0.29500332 0.083821617
-214.4993 -76.833649 0.22461477 0.12341614
-212.85202 -72.519806 0.3073003 0.081286959
146.06953 -3.5236723 0.22111495 0.30533123
-189.75772 -80.820892 0.58131921 0.0081325956
142.49095 -1.5811518 0.38354161 0.11372239
149.07141 -133.44386 -0.10690417 0.023356119
148.71889 -129.75644 -0.33507013 0.02750651
178.93257 -127.37678 -0.29398757 0.070656799
179.71391 -125.00215 -0.27696508 0.067986995
159.01422 -116.90936 -0.046077926 0.032519531
159.76082 -112.37363 -0.073353581 0.02031686
159.95433 -110.44588 -0.11238875 0.012749024
181.99358 -109.52688 -0.29728329 0.29535571
165.8192 -91.343376 -0.30746961 0.51164418
145.86652 -80.278397 -0.13331266 0.12084961
168.67108 -141.9227 0.19538692 0.28254697
175.3774 -133.74486 0.10561115 0.072666682
-159.29546 -208.19453 1.2084218 0.13760941
-150.99153 -212.65199 0.24887496 0.094721764
-137.11353 -217.95724 1.0978315 0.036865234
-142.79802 -214.83551 1.1525545 0.0036621094
-128.10326 -219.26993 0.23504056 0.27441406
-161.433 -206.95859 0.92139375 0.15750051
156.27013 -122.7439 0.62384325 0.032966737
158.27553 -118.49121 0.10837366 0.062339533
-7.6148682 -45.804214 0.75118428 0.19297962
158.54099 -116.24811 0.098165855 0.054460797
-16.532404 -40.865437 0.29572043 0.80509186
159.21651 -115.14705 0.52159381 0.022402387
180.91566 -120.02579 0.067743681 0.068888344
181.19395 -118.25793 0.078073807 0.070484705
181.60443 -115.22395 0.19588044 0.071812063
160.03009 -104.21606 0.52765381 0.013834635
160.49687 -101.58549 0.92333478 0.11124359
159.63547 -98.651802 0.24695346 0.016064454
-193.28479 -94.921753 0.58913946 0.31812221
-193.08052 -90.979752 0.12729456 0.35672945
-192.62941 -88.451172 0.28603473 0.3818039
-192.13705 -86.354134 0.28385288 0.32358128
-190.27657 -82.592842 0.43221906 0.38954529
123.71942 5.6309199 0.25217459 0.20922852
-212.50638 -70.354225 1.0224349 0.12129612
122.13008 6.1240139 0.52258319 0.24804688
168.59546 -142.01921 -0.077448174 0.28245872
170.14662 -140.23747 -0.16773416 0.1373698
158.25294 -118.57086 -0.056296408 0.070887811
158.369 -116.41897 -0.07245218 0.056811526
180.15755 -123.41985 -0.29329842 0.067785524
180.64581 -121.37313 -0.040214472 0.070850864
181.13644 -118.65208 -0.28004691 0.071414895
160.60255 -101.43542 -0.012209405 0.32495117
145.10844 -81.736679 -0.15618256 0.098632812
165.28065 -88.387573 -0.39731205 0.31469533
149.08598 -133.76147 0.28646511 0.030470842
154.96306 -124.30058 0.1075592 0.016188849
-139.73611 -217.07382 0.20847911 0.23064168
-130.85904 -219.85002 0.21201999 0.24308267
-156.43982 -209.83165 0.70301551 0.13960239
-162.79286 -205.11743 1.2883414 0.02830331
-148.64201 -212.47327 0.43475503 0.29444593
-117.03828 -222.95583 0.61214858 0.13246813
177.88905 -130.20036 0.14882526 0.067257687
178.97516 -127.28953 0.19605035 0.068549678
-27.910656 -38.892567 0.94363326 0.23251954
179.73018 -124.96798 0.19901451 0.064082474
-37.168465 -32.618221 0.18783176 0.48828125
180.14909 -123.50789 0.078352287 0.067206144
159.75952 -112.2501 0.11559895 0.035417344
159.94989 -110.00069 0.098331921 0.018649438
160.05679 -107.70534 0.27308702 0.022644043
181.86656 -112.25219 0.081964366 0.068707086
181.97942 -109.38248 0.2453323 0.057644878
181.9933 -106.26618 0.36490956 0.065486975
-99.960213 -194.98625 0.32745212 0.33693752
-215.87973 -84.698311 0.69525653 0.16280654
-215.81982 -82.457916 0.18967773 0.12058411
-215.2509 -79.891281 0.30397269 0.09254171
-214.53479 -76.953903 0.30390275 0.10101827
-212.85515 -72.509659 0.45718521 0.1213345
146.1306 -3.5627551 0.47613704 0.35972157
-189.48502 -80.150612 0.18404658 0.36106709
142.61816 -1.6651639 0.69585258 0.13982803
149.07243 -134.07159 -0.089535035 0.036365326
149.03537 -129.40671 -0.20129508 0.033615105
178.9511 -127.34066 -0.043142118 0.069228098
179.73854 -124.93816 -0.27610624 0.068097584
159.27432 -115.23297 -0.072199292 0.02046131
159.56557 -113.77522 -0.04195264 0.0083007812
159.94878 -110.3495 -0.10598278 0.012333984
181.99527 -109.46513 -0.27132085 0.31842905
165.8546 -91.547279 -0.31163964 0.52762735
145.87354 -80.212822 -0.48369214 0.14884441
169.21631 -141.24812 0.30300963 0.27463785
175.64061 -133.41766 0.20687918 0.06903895
-159.15079 -208.35095 0.37037998 0.13919745
-150.97897 -212.65456 0.37139004 0.15760118
-136.03085 -218.32256 0.21434885 0.22623697
-142.42201 -215.01222 0.21564485 0.2199707
-128.13 -219.24478 0.60003352 0.18896484
-45.777184 -196.03374 -0.098562472 0.34214383
156.27216 -122.91862 0.29431674 0.032063801
157.94641 -118.7883 0.70474416 0.072293133
-7.6314378 -45.662209 1.1468349 0.37988281
158.3287 -116.14778 0.7521584 0.063971676
-16.910105 -41.143505 0.27331081 0.25701496
159.30408 -115.12878 0.10561532 0.027510144
180.91765 -120.02729 0.18860964 0.070515953
181.19212 -118.3305 0.19612463 0.070042618
181.72125 -114.50787 0.3133902 0.0031277619
160.01466 -103.46807 0.060940515 0.011816407
160.62894 -101.48009 0.98838234 0.20443115
159.60004 -98.417259 0.44325364 0.024902344
-36.275002 -221.98694 0.084142894 0.061075404
-193.28023 -95.40815 0.7596724 0.0036621094
-193.09302 -90.98629 0.27820137 0.35709688
-192.63579 -88.449669 0.42639622 0.38591853
-192.1467 -86.34758 0.42718974 0.35953504
-190.28316 -82.586571 0.59069031 0.39324555
123.74585 5.6062636 0.70001912 0.23876953
-212.54778 -70.539078 0.31954023 0.044708814
122.13583 6.109293 0.83363062 0.28173828
168.7943 -141.79231 -0.30311936 0.28246915
169.94307 -140.40997 -0.35247624 0.15866156
158.17928 -119.08382 -0.047004521 0.090058595
158.37155 -116.20819 -0.073398247 0.055529784
180.15811 -123.44691 -0.043225918 0.069953583
180.67737 -121.19264 -0.28490013 0.070424214
181.39998 -117.06396 -0.050911054 0.084716797
160.59572 -101.49136 -0.0016873027 0.22547202
145.0247 -81.709442 -0.18276492 0.097412109
165.25478 -88.480827 -0.27616325 0.53705299
149.09956 -133.32404 0.47698385 0.029736329
154.94942 -124.25787 0.28443575 0.01760835
-139.81058 -217.02693 0.50684208 0.21378581
-130.8718 -219.83688 0.50822866 0.24804688
-156.35547 -209.93478 0.37462929 0.16484143
-162.54167 -205.31343 0.38655856 0.10536703
-148.72771 -212.42 0.80554646 0.26888174
-11.694961 8.9817905 -0.17438005 0.13352038
178.2256 -129.35254 0.32202163 0.00016276042
178.92178 -127.45387 0.076506592 0.06858813
-27.883936 -38.910397 1.3092952 0.38671875
179.72212 -125.00695 0.077807054 0.065647006
-37.19828 -32.563168 0.49750972 0.70166016
180.15617 -123.48383 0.19736148 0.068339273
159.758 -112.14896 0.27914837 0.020962168
159.94203 -109.96537 0.27069578 0.033945512
160.04829 -107.71489 0.52656966 0.010407948
181.8687 -112.27949 0.19734828 0.072852299
181.97404 -109.24255 0.082823254 0.06825725
181.97647 -106.17978 0.088381298 0.067221694
-205.52415 -150.09779 0.36899939 0.028930664
34.453369 -193.68079 -0.20703132 0.38513184
-215.869 -84.726021 1.0210464 0.13909295
-215.75542 -82.173401 0.30717814 0.11398278
-215.22969 -79.829475 0.46049607 0.14763628
-214.50858 -76.903221 0.46029502 0.14537463
-212.81696 -72.468781 0.67530346 0.1435238
146.17047 -3.5902734 0.86064088 0.26064745
-189.58397 -80.287674 0.43453297 0.3770256
148.24199 -4.6830807 0.18238451 0.10871187
142.56636 -1.6495193 1.0203143 0.15071939
-179.34192 -20.560116 -0.0020331463 0.36484694
149.1091 -133.87892 -0.48832446 0.073543295
147.86331 -130.65695 -0.269427 0.019287109
178.94562 -127.34622 -0.28803095 0.070526555
179.69606 -125.071 -0.27615324 0.068439826
159.01831 -116.98532 -0.041355379 0.026977539
159.77907 -112.28886 -0.078353792 0.019438781
159.92746 -110.79707 -0.094483182 0.01171875
181.98624 -109.55706 -0.34259945 0.11692307
165.84891 -91.516006 -0.30351073 0.52941996
145.80391 -80.279907 -0.13952425 0.12536621
168.79266 -141.79811 0.029764436 0.28017801
176.72839 -132.13643 0.32273358 0.00048828125
-159.13712 -208.32727 0.66401196 0.16746011
-150.96838 -212.64539 0.66743422 0.16736017
-136.12811 -218.27551 0.50398254 0.23868816
-142.41843 -214.98717 0.52498484 0.25469291
-128.04732 -219.24554 0.99835074 0.24169922
-160.71498 -206.35533 0.831806 0.1126187
156.16808 -122.8919 0.66979146 0.038866315
158.26534 -118.58601 0.1133242 0.065763518
-7.6208553 -45.629021 1.4580207 0.16455078
158.48096 -116.27953 0.10249985 0.063767657
-17.733154 -41.235836 0.49154902 0.075174965
159.2641 -115.11456 0.4346416 0.026616799
180.92506 -120.0293 0.30089065 0.048787434
181.39362 -117.14069 0.31675148 0
181.60802 -115.22078 0.074012466 0.070410453
160.01067 -103.47706 0.24990883 0.012329102
160.25775 -100.91611 0.069081865 0.015966797
159.68469 -98.834579 0.063948892 0.013964844
-162.44513 -170.74257 0.58823013 0.25656012
98.201797 -219.1116 -0.091985293 0.072765589
-193.31409 -95.480774 0.093147352 0.29573798
-193.10052 -90.986755 0.42312086 0.38736343
-192.64349 -88.451302 0.57251054 0.39410481
-192.16194 -86.344681 0.57214308 0.36820883
-190.18976 -82.483917 0.75605005 0.17898035
123.67043 5.6093063 1.1260984 0.25
-212.54109 -70.40731 0.48278373 0.074932389
128.39003 4.2107143 0.22134578 0.2277832
122.09722 6.1090279 1.1490943 0.070800781
-209.67699 -63.521965 0.38445294 0.093319036
168.69449 -141.93596 -0.37274033 0.30266324
169.97324 -140.39827 -0.14779745 0.15655518
158.2229 -118.448 -0.05669507 0.064783931
158.48216 -116.25485 -0.066658996 0.047705445
180.14546 -123.49745 -0.28956345 0.068230875
180.68567 -121.19352 -0.041426219 0.070724949
181.13701 -118.58528 -0.28242463 0.071438022
159.79538 -99.592484 -0.20110564 0.064453125
-29.716761 -15.690378 -0.12634352 0.5574199
145.41714 -81.528976 -0.16147205 0.15506999
165.23759 -88.157692 -0.40116644 0.29705778
149.12634 -133.64262 0.094873831 0.030035805
-156.05394 -210.08405 0.46000338 0.1382346
154.9303 -124.18774 0.62089753 0.017778704
-139.64371 -217.0627 0.79346883 0.24648437
-130.81219 -219.82416 0.79855782 0.21809895
-156.33322 -209.92413 0.6686005 0.15250652
-162.52992 -205.29192 0.70247954 0.1718343
-147.99805 -212.72032 0.41777244 0.33323744
-140.35103 -215.76881 0.22176167 0.24584961
177.83948 -130.25969 0.081015378 0.067226082
178.96495 -127.33315 0.1950358 0.065276831
-27.733789 -38.901306 0.21201999 0.27558595
179.74292 -124.95199 0.19702831 0.066956066
-37.213364 -32.703693 0.51044106 0.12988281
180.13622 -123.55717 0.079642832 0.066790223
159.84691 -111.06587 0.37629437 0.015127267
159.92201 -109.98577 0.53313518 0.019077266
160.05536 -106.97376 0.087970518 0.008338565
181.87199 -112.24906 0.31174323 0.060311239
181.9686 -109.28208 0.21028702 0.071052685
181.98157 -106.13186 0.19782734 0.070293389
-99.959595 -195.01935 0.68382502 0.32287541
69.226349 10.34414 -0.022151196 0.075669557
-215.87285 -84.583183 0.14845887 0.15493047
-215.76958 -82.289215 0.46472144 0.16600275
-215.21173 -79.824768 0.86530739 0.16428129
-214.49649 -76.908112 0.62454683 0.17444566
-212.86258 -72.542168 0.31865487 0.10345031
146.08945 -3.5247459 0.17493859 0.32172853
-189.67749 -80.620453 0.58198565 0.038153753
148.32637 -4.7396913 0.38513821 0.10615598
142.51166 -1.7430434 0.15327975 0.032754026
-186.01289 -74.998589 0.64794552 0.30419922
149.13754 -133.37442 -0.30535093 0.080281578
147.91609 -130.53738 -0.016657144 0.1003418
178.93181 -127.40719 -0.041716315 0.068986863
179.68524 -125.12434 -0.043781161 0.067540213
159.34589 -115.1188 -0.060794026 0.019294085
159.53667 -113.9673 -0.048393898 0.010644531
159.97726 -109.85661 -0.10725484 0.038391929
181.98793 -109.85234 -0.15966657 0.065997556
-63.297852 -221.89726 -0.016228674 0.085107028
165.80753 -91.302704 -0.30839843 0.53390795
145.86523 -80.147736 -0.48799646 0.11541748
168.61343 -142.02266 0.10845269 0.28640109
-0.13611382 -221.40358 -0.15136409 0.17579241
175.52304 -133.42468 0.071365327 0.073366106
-159.12842 -208.3188 0.96537173 0.14287651
-150.91745 -212.63416 0.97477287 0.17812642
-135.99562 -218.29749 0.80067968 0.26359048
-142.39189 -214.98105 0.82642776 0.2523112
-127.57286 -219.35774 0.23504056 0.27441406
-174.08209 -198.03201 0.35894412 0.11602005
-160.90675 -206.2832 0.3817305 0.11931812
157.05795 -121.68973 0.1155687 0.010864258
157.98169 -118.68687 0.73819572 0.074602708
-7.4922252 -45.466888 0.34947172 0.14933269
158.26285 -116.22008 0.81320542 0.068201095
-16.699854 -41.057339 0.71207339 0.27452451
159.33792 -114.95517 0.10074858 0.020983743
168.29984 -57.144859 -0.20248501 0.070627794
181.23094 -118.04253 0.078778572 0.068961591
181.60536 -115.25378 0.19363199 0.0692553
160.0007 -103.45815 0.53738701 0.013529459
159.80269 -100.40396 0.25196144 0.017903646
159.67134 -98.824028 0.24582534 0.0088867191
-36.190971 -222.06918 0.23530178 0.087951235
-2.8249395 -15.909111 0.29536524 0.6527769
-193.08479 -93.541542 0.11793369 0.32602367
-193.10985 -90.987175 0.57153624 0.35181844
-192.48941 -87.866394 0.0093685258 0.33403239
-192.10484 -86.362968 0.71971434 0.13890697
-190.16324 -82.301323 0.12006678 0.35835803
123.26768 5.7938237 0.25217459 0.20922852
-212.55171 -70.533752 1.0119051 0.12782243
128.39862 4.196332 0.52889681 0.2565918
121.6497 6.2815685 0.21433799 0.25716147
-209.69893 -63.601887 0.75050819 0.10570271
168.81335 -141.79138 -0.27348036 0.28621465
169.47699 -140.89436 -0.42445382 0.18107484
158.23224 -118.94016 -0.045933474 0.072332211
158.90019 -116.7495 -0.049216032 0.022460938
180.15433 -123.50071 -0.044706561 0.068988815
180.70337 -121.11344 -0.2850925 0.069951512
181.13844 -118.5938 -0.28034946 0.072043195
160.6283 -101.44478 -0.15790699 0.26672363
181.98926 -106.04264 -0.32642046 0.30121094
145.88997 -81.437706 -0.15753052 0.10400391
165.28946 -88.624992 -0.29265732 0.56671619
149.11536 -134.25363 0.10130759 0.03503418
33.235321 -16.3969 -0.047934175 0.58139968
154.81201 -124.31581 0.10890186 0.018567767
-139.70757 -217.02144 1.0727581 0.24316406
-130.93562 -219.80841 1.1030841 0.016601562
-156.3212 -209.90192 0.97192001 0.19856772
-162.58539 -205.23729 1.0205426 0.17655987
-148.68246 -212.44405 0.43009356 0.22006615
-155.98462 -209.82516 0.20753086 0.2265625
-140.31796 -215.75999 0.5263502 0.25211588
177.87869 -130.17226 0.19768788 0.071020804
178.89709 -127.51385 0.075553514 0.069365837
-27.744051 -38.90873 0.56445718 0.29033202
179.74779 -124.93974 0.077402227 0.065928876
-37.299179 -32.572613 0.8265574 0.47119141
180.13411 -123.56142 0.19692013 0.068241186
127.45982 -39.0368 -0.23488152 0.67826039
159.93123 -110.04729 0.092501782 0.030664725
160.05864 -106.97533 0.26571167 0.009480794
181.86732 -112.07512 0.089046314 0.069671594
181.97124 -109.0014 0.34435913 0.048291996
181.98347 -107.28381 0.29870129 0.075683594
-65.828697 8.6114454 0.60933506 0.049364533
-63.559105 9.0288477 1.4508839 0
-215.99229 -85.180336 0.15396068 0.13957869
-215.79156 -82.345177 0.23632875 0.13517049
-215.30493 -80.113274 0.1430784 0.11561359
-214.48276 -76.89711 0.94882011 0.17400017
-212.76355 -72.249817 0.29659563 0.1057841
146.06665 -3.5243878 0.47489801 0.37210286
-189.55684 -80.301857 0.15545973 0.36446092
148.24811 -4.7063923 0.70199466 0.14004779
142.36951 -1.5170598 0.38043931 0.11508863
-186.01236 -74.997673 0.83944947 0.30834961
149.11107 -133.88785 -0.28983593 0.024658203
147.91626 -130.67027 -0.27799863 0.052246094
178.91113 -127.45068 -0.28538242 0.069664955
179.70064 -125.0637 -0.28463644 0.068358906
159.13278 -115.93125 -0.049773693 0.087402344
159.79433 -112.17859 -0.076404266 0.020275395
159.97447 -109.92696 -0.10974623 0.015932437
181.96771 -109.7298 -0.27341506 0.063773699
159.64482 -98.111443 -0.20250915 0.0043945312
165.69766 -90.635185 -0.38727358 0.37065893
145.59711 -79.381912 -0.15312222 0.15527344
168.69099 -141.92299 0.24082106 0.29272786
-101.76033 -15.269791 0.51322258 0.77105659
175.6225 -133.29829 0.20706074 0.069291748
-159.12119 -208.30557 1.2058251 0.15454102
-150.61122 -212.81844 0.29308152 0.12134691
-135.88062 -218.31531 1.0917064 0.14615886
-142.42474 -214.95277 1.1473026 0.17006429
-127.59975 -219.33276 0.60003352 0.18896484
-174.09547 -198.02242 0.37687719 0.11606174
-160.85832 -206.28481 0.70493114 0.13957195
156.60281 -122.14425 0.52798522 0.018481281
158.3022 -118.46195 0.11423253 0.061476938
-7.4894714 -45.832989 0.75291395 0.076660156
158.57381 -116.12004 0.10343617 0.060700916
-16.647177 -40.772705 0.17351551 0.5180096
159.27533 -114.99272 0.43350402 0.024794351
105.10862 -31.155497 -0.19743735 0.66015488
181.24103 -118.04004 0.19302744 0.069079243
181.73502 -114.33351 0.31023484 8.9518231e-05
160.01967 -104.14935 0.075268455 0.049744233
160.21074 -100.59091 0.50577617 0.16521728
159.68739 -98.963234 0.25340831 0.030273438
-216.78955 -89.731415 -0.016944557 0.41876891
-216.26421 -86.524979 -0.018956425 0.43020287
-193.34894 -95.776268 0.2494992 0.3072632
-193.13835 -91.424072 0.12320438 0.35834265
-192.61839 -88.439651 0.14386438 0.36651024
-192.0479 -86.122482 0.0023328811 0.29793295
-190.16489 -82.308525 0.27731177 0.36347389
123.37603 5.7456713 0.69898027 0.23632812
-212.57985 -70.47155 0.31296173 0.079872496
128.36487 4.1882648 0.83688349 0.24007161
121.66118 6.2659492 0.53166366 0.25504556
-209.92645 -64.299988 0.59892368 0.14306465
168.68372 -141.94467 -0.18170595 0.28290081
169.6165 -140.86554 -0.13290125 0.16064453
158.26933 -118.37517 -0.056941997 0.05602818
158.35574 -116.06485 -0.060686417 0.058173284
180.13158 -123.55603 -0.28556159 0.069113247
180.71196 -121.11621 -0.041856088 0.07070978
181.13287 -118.62033 -0.28655514 0.07264106
160.61261 -101.47742 -0.14741136 0.19087727
182.01193 -107.33168 -0.15462153 0.064235844
146.06735 -81.435486 -0.49806336 0.096679688
165.12575 -87.804604 -0.11646204 0.50156087
149.13292 -133.77591 0.28955391 0.03512641
-143.83002 0.2227612 0.56997228 0.16033369
154.80821 -124.21178 0.52554172 0.018997241
-138.16945 -217.8726 0.62602407 0.13769256
-131.82068 -219.63042 0.20157687 0.21237522
-156.31583 -209.89182 1.2136116 0.10145399
-162.62837 -205.20122 1.2849233 0.093733147
-148.76648 -212.38844 0.79453486 0.19529995
-155.9944 -209.81128 0.50586373 0.24169922
-140.28677 -215.74805 0.85196728 0.24145508
177.80731 -130.30621 0.080797389 0.067831047
178.96217 -127.33065 0.19380884 0.065616623
-27.743704 -38.902481 0.92692095 0.30794272
179.74712 -124.95711 0.19481683 0.065980114
-37.009415 -32.685158 0.19575344 0.44458008
180.15315 -123.49051 0.075840048 0.067151994
12.963218 -48.556797 0.88168395 0.46551222
159.94882 -109.62816 0.41552642 0.030549992
160.04625 -107.25861 0.51388496 0.014316274
181.86342 -112.11765 0.19455121 0.071738251
181.98267 -109.03115 0.086444095 0.066564448
181.9892 -106.1784 0.36110699 0.045316812
-162.8754 -169.8374 0.53359538 0.28656122
-101.76058 -194.04924 0.37480631 0.31629726
-215.79579 -84.091034 0.29878309 0.25292969
-215.95018 -83.113625 0.15165856 0.12207031
-215.1541 -79.535652 0.29480484 0.096396022
-214.55359 -77.027611 0.1449475 0.12612902
-212.85713 -72.529396 0.33856025 0.11037022
146.78531 -3.9334047 0.74482524 0.41949463
-189.56383 -80.279037 0.42180833 0.38570786
148.25032 -4.7159715 1.0235347 0.11168935
142.34679 -1.5174992 0.69832456 0.13393146
-137.28563 -37.188229 -0.22734055 0.39070711
149.11852 -133.54826 -0.1032445 0.030439105
147.82227 -130.59909 -0.012284994 0.1015625
178.91815 -127.44964 -0.040379804 0.06908872
179.70917 -125.06865 -0.044137843 0.067866474
159.31313 -115.12943 -0.063095599 0.025571551
159.55812 -113.87119 -0.048005987 0.012280273
159.97301 -109.88329 -0.098393992 0.016581219
181.97755 -109.53345 -0.26793247 0.06566254
159.66649 -98.245926 -0.19666512 0.013020833
165.78357 -91.16951 -0.27324909 0.58908355
145.84891 -80.078041 -0.14011775 0.098242179
168.06079 -142.71194 0.35589933 0.0077514648
-63.792561 -194.71126 -0.14874591 0.35380051
175.58606 -133.39534 0.069118984 0.069946967
-103.45621 -14.982471 0.10020359 0.19769578
-150.58324 -212.8299 0.37353969 0.13630371
-135.17334 -218.83694 0.54970008 0.14842078
-142.651 -214.91492 0.20745008 0.24414062
-127.61349 -219.31691 0.99626786 0.25878906
-174.08327 -198.02101 0.66085458 0.1516462
-160.82602 -206.28123 1.0316026 0.14374578
156.66531 -122.28844 0.12109143 0.012451172
158.02493 -118.52489 0.738424 0.074006759
-7.5059824 -45.704082 1.160984 0.12646484
158.3459 -116.0345 0.79978216 0.066212609
-16.750612 -40.965908 0.27870947 0.37068686
159.28865 -115.18199 0.11174948 0.02949374
-7.2387695 -41.220684 0.19613622 0.062988281
181.2744 -117.81541 0.076132268 0.071005389
181.63153 -115.00993 0.077816188 0.071885109
159.99945 -103.74075 0.25769657 0.051570635
160.61578 -101.33775 0.072975799 0.096093751
159.6503 -98.855507 0.43963099 0.025585938
-120.86777 -187.17812 1.0934768 0.10682546
-36.747433 -221.26135 0.30141971 0.083122209
-193.20471 -94.437927 0.26351541 0.30291602
-193.14813 -91.423859 0.27402592 0.36220014
-192.63811 -88.495781 0.28629634 0.37670422
-192.13272 -86.404305 0.14453818 0.3045736
-190.17188 -82.305092 0.4341 0.39101714
123.21236 5.7928324 0.70105797 0.24121094
-212.56081 -70.432861 0.47840548 0.070296131
128.40967 4.1784868 1.150605 0.052734375
121.64296 6.2480421 0.8235389 0.28759766
-209.96606 -63.151611 1.108583 0.38326824
168.61671 -142.01987 -0.072916754 0.28835264
170.10638 -140.23433 -0.31167319 0.15058826
158.21487 -118.94286 -0.044820465 0.063258164
158.90874 -116.59286 -0.037450098 0.06281738
180.14703 -123.49268 -0.26712015 0.069527239
180.71504 -121.09067 -0.27443707 0.068086088
181.14766 -118.55875 -0.28094283 0.073078431
160.65857 -101.48088 -0.13854089 0.35005695
181.99908 -106.18911 -0.30831191 0.25151646
145.17805 -81.749992 -0.15875334 0.11108398
165.19215 -87.930779 -0.39697066 0.28955626
149.14012 -133.32718 0.47597364 0.03330078
-63.520138 -195.562 -0.10075503 0.32991537
-0.83035964 -220.7641 -0.076539248 0.080758266
154.71167 -124.53786 0.11742105 0.018424477
-215.97043 -128.83812 -0.032623604 0.23945281
-131.77451 -219.63237 0.46956372 0.23535156
-99.272545 -14.975534 0.11931445 0.17464192
-162.39751 -205.4008 0.37936452 0.11067709
-149.90497 -211.89368 1.0488552 0.10302734
-155.95049 -209.82686 0.80290484 0.26953125
-140.33647 -215.73659 1.1713471 0.022949219
177.84442 -130.22446 0.19646502 0.069418281
178.94962 -127.34557 0.075502343 0.066550314
-27.739866 -38.900822 1.2940761 0.31787109
179.72148 -125.0061 0.074948549 0.066559725
-37.034767 -32.630222 0.4862355 0.62512207
180.15564 -123.48434 0.19299881 0.06857577
12.896222 -48.574299 0.29624677 1.3613281
159.95035 -110.02822 0.099700816 0.019862875
160.04634 -107.13216 0.084128581 0.014446614
181.86182 -112.16312 0.30817926 0.068951428
181.98029 -109.06275 0.19684418 0.069627345
181.98254 -105.9706 0.08794374 0.066729918
165.73326 -91.357964 0.0031840501 0.0081303911
35.811176 -193.61066 -0.09778624 0.39074191
-215.87848 -84.602898 0.30518052 0.16638251
-215.81413 -82.487823 0.30596885 0.11732313
-215.35703 -80.371933 0.30345839 0.098866299
-214.58267 -77.178467 0.22434142 0.127772
-212.86084 -72.546089 0.45440349 0.10862054
145.98039 -3.4826219 0.86806756 0.28236082
-189.68346 -80.646423 0.58074009 0.037051246
147.81253 -4.4247756 0.19403566 0.10233479
142.35709 -1.5395402 1.0097812 0.16099061
-186.02313 -74.532745 0.045105986 0.34853515
149.11348 -134.08748 -0.093192972 0.030951604
148.62189 -129.90703 -0.27525118 0.085998535
178.88646 -127.51153 -0.28449211 0.069861628
179.72368 -124.99824 -0.28486508 0.068240702
159.34425 -114.95786 -0.061502505 0.028582862
159.79466 -112.1437 -0.069223419 0.019029949
159.95135 -110.17779 -0.089015849 0.011085923
181.9713 -109.49992 -0.31310689 0.063161619
159.62088 -97.880112 -0.20250915 0.0043945312
165.79472 -91.225861 -0.12785646 0.57893836
145.90648 -79.927528 -0.48356882 0.10991753
168.63823 -141.90598 0.022684257 0.28494823
173.85229 -135.68356 0.72912598 0.2317896
159.08014 -71.209084 -0.2760202 0.32714731
175.677 -133.27777 0.20529705 0.070797659
-159.29785 -207.1846 0.72519976 0.11130816
-165.60405 -204.28825 0.76445156 0.12832214
-150.5757 -212.82251 0.67082334 0.14778371
-157.07372 -208.40924 0.71891385 0.13349555
-142.69524 -214.87723 0.49018484 0.23242188
-127.42062 -219.34927 1.0004337 0.22460938
-174.06982 -198.01178 0.9557637 0.1855399
-160.79933 -206.32323 0.79603374 0.12580442
156.55496 -122.29039 0.47600439 0.024371432
158.25276 -118.63708 0.11745901 0.071601421
-7.5260105 -45.647881 1.4592948 0.087280273
158.5652 -116.28175 0.11140576 0.06232604
-16.680714 -40.984356 0.62507093 0.29651248
159.29036 -114.91254 0.43971229 0.021312313
-7.2583523 -41.121132 0.68425137 0.072753906
181.27812 -117.81014 0.19010153 0.070366256
181.63361 -115.00705 0.19203761 0.071893044
159.96164 -102.80919 0.27647358 0.02846176
160.45175 -101.05011 0.24950974 0.078332521
159.65477 -98.606674 0.063948892 0.013964844
145.21036 -81.680077 0.64267141 0.11144438
165.29199 -89.238075 0.00034582615 0.00048828125
-193.23839 -94.645927 0.41790459 0.3237606
-193.15804 -91.419777 0.42368934 0.37173495
-192.64671 -88.496498 0.42872599 0.39737332
-192.14426 -86.386986 0.2865445 0.34415692
-190.1765 -82.298759 0.59236521 0.38733169
123.21877 5.7720537 1.1260984 0.25
-212.55043 -70.481956 0.99335557 0.11790359
77.431862 -193.97253 0.81515211 0.37570313
128.0305 4.3353524 0.22123395 0.24495442
121.64453 6.2441959 1.1467943 0.028076172
-209.9151 -63.407295 1.161697 0.38433522
168.93683 -141.56854 -0.30248782 0.27764213
170.3009 -139.99831 -0.14038703 0.15825738
158.26657 -118.23627 -0.056758508 0.061641242
158.2395 -116.02907 -0.068127796 0.050920758
180.15182 -123.49031 -0.039739158 0.067322887
180.72704 -121.05688 -0.04074081 0.069016427
181.15311 -118.51185 -0.28673521 0.073371068
159.927 -101.26195 -0.15512416 0.0092773438
182.02402 -107.0125 -0.15462153 0.064235844
146.01581 -81.471458 -0.14746954 0.14312066
165.27681 -88.619476 -0.29146814 0.57553542
149.26028 -133.42915 0.094873831 0.030035805
-29.784971 8.7145596 -0.15075442 0.11654306
140.17157 -62.457272 -0.17368056 0.26074219
154.69229 -124.52527 0.28867292 0.020438755
-139.54825 -216.06052 0.20725532 0.25862631
-146.99658 -214.2244 0.21873951 0.2273763
-131.76445 -219.61992 0.75154257 0.23738606
-137.59315 -216.69638 0.42428884 0.22906494
-162.38455 -205.37823 0.69530153 0.15699373
-148.65454 -212.45715 0.73038352 0.12704909
-155.98036 -209.77217 1.1040769 0.093017578
-139.80731 -215.98088 0.21922739 0.25016275
177.78592 -130.33131 0.078369915 0.067858286
178.95934 -127.34595 0.19319668 0.066081733
-27.796993 -38.951061 0.20117231 0.32958984
179.7207 -125.00427 0.19236416 0.065145522
-37.144791 -32.681545 0.80299056 0.54931641
180.14153 -123.54704 0.078791723 0.06781783
12.872127 -48.564835 0.67536879 0.45255533
159.93707 -109.94429 0.45744839 0.021711051
160.06812 -105.57206 0.24791241 0.011962891
181.86636 -112.07197 0.084089011 0.071469508
181.98685 -109.0816 0.36471808 0.037616719
181.9875 -105.90338 0.19733995 0.07025674
166.07492 -92.698135 0.022556402 0.458924
146.01091 -80.061729 0.40125427 0.054036457
-215.87428 -84.613022 0.46169648 0.15054806
-215.80984 -82.488792 0.46403843 0.1628935
-215.26952 -80.038422 0.45910177 0.1621224
-214.57185 -77.153358 0.30576986 0.1109507
-212.83655 -72.53434 0.60523933 0.12647502
145.90257 -3.4417005 0.223415 0.29868999
-189.60176 -80.393555 0.14872847 0.36091471
154.10497 -8.33358 0.20052606 0.33248904
147.82129 -4.4394517 0.38245586 0.1206861
142.01384 -1.3530843 0.69081563 0.13893588
-186.22978 -74.842911 0.2464276 0.21162109
149.24394 -133.66553 -0.48832446 0.073543295
148.55688 -129.91521 -0.028784441 0.0088012693
178.89348 -127.51303 -0.04068071 0.069275953
179.72821 -124.99848 -0.042995781 0.068054661
159.10527 -115.81515 -0.046863545 0.053263348
159.49158 -113.65445 -0.047507912 0.00048828125
159.95932 -109.87766 -0.094224669 0.021594239
181.97644 -109.59657 -0.25293827 0.065797478
159.64308 -98.014503 -0.19666512 0.013020833
165.66513 -90.505325 -0.35785562 0.37298295
145.8425 -79.157104 -0.15299486 0.10270182
168.64072 -141.9055 0.10974932 0.28753239
150.54063 -128.1199 0.44600603 0.010930944
159.30266 -71.74678 -0.42829573 0.56496829
176.20528 -132.67102 0.31458321 0.0085606547
-159.27461 -207.21332 0.39043984 0.11473592
-165.55212 -204.33382 0.71975011 0.12989208
-150.56306 -212.81389 0.90023547 0.18314074
-156.81863 -208.56737 0.38445902 0.12307739
-142.68201 -214.86507 0.81161261 0.26904297
-128.61842 -219.15096 0.20274295 0.21679688
-174.09085 -198.03833 0.49839005 0.12355427
-160.50208 -206.52274 0.38779473 0.1221962
156.77199 -122.16867 0.11948548 0.016927084
158.02902 -118.7293 0.65550691 0.075371504
-7.5543194 -46.174549 0.26107177 0.012695312
158.54645 -116.26998 0.28110152 0.053538792
-16.764574 -40.99231 0.98205829 0.097113706
159.32994 -114.81496 0.1035791 0.030278215
-7.2323494 -41.273445 0.71261233 0.065429688
181.28836 -117.67173 0.077082053 0.069762364
181.56705 -115.7458 0.29836515 0.029785156
160.00423 -103.77976 0.070730805 0.011826172
160.57106 -101.27032 0.91799462 0.13320701
159.64137 -98.596191 0.24582534 0.0088867191
144.95467 -81.629395 0.67863446 0.091796875
165.56253 -89.818581 0.021490917 0.46157244
-193.25711 -94.640732 0.5787465 0.34749106
-193.1703 -91.41748 0.57225144 0.35579273
-192.65027 -88.496765 0.57134634 0.39251485
-192.15665 -86.380356 0.42708021 0.36169705
-190.28659 -82.525162 0.74487102 0.35063136
124.34144 5.4944563 0.2539674 0.28515625
-212.54271 -70.306831 0.31491733 0.090384349
133.70699 2.2543964 0.23936158 0.19165039
128.19942 4.2695436 0.50577658 0.23974609
121.64571 6.2634983 0.21425614 0.26611328
-209.87296 -63.342937 0.89421642 0.36711341
168.60855 -141.95731 -0.37135774 0.31121656
169.65201 -140.77634 -0.38111466 0.16648763
158.28784 -118.70984 -0.044820465 0.063258164
158.89711 -116.3506 -0.046057463 0.076466881
180.13618 -123.54397 -0.28598964 0.068775743
180.73848 -120.90311 -0.27992937 0.069371216
181.17001 -118.41316 -0.27420056 0.07254792
160.25198 -101.56827 -0.12913881 0.10541992
181.97162 -106.47939 -0.24760254 0.067279667
145.95929 -81.155319 -0.49137649 0.1184082
165.26907 -88.540237 -0.12467813 0.60318154
149.25159 -134.04019 0.10130759 0.03503418
-213.20947 -137.68713 -0.00085450191 0.19290313
173.03804 -136.53864 0.083576977 0.30651727
140.2989 -62.806076 -0.47120938 0.067871094
154.63582 -124.48026 0.58987832 0.01992207
-139.52226 -216.05151 0.52421391 0.26025391
-146.94478 -214.21037 1.100004 0.028320312
-131.80969 -219.59109 1.0332137 0.12906902
-137.49164 -216.70912 0.50310349 0.23124185
-162.38046 -205.34497 1.0337759 0.17361692
-148.53178 -212.53658 0.38854259 0.12074526
-155.98041 -209.98219 1.0058322 0.29650095
-139.81979 -215.96425 0.52169627 0.25292969
177.80736 -130.29054 0.19413468 0.07043273
179.01018 -127.17354 0.076409467 0.06771943
-27.819902 -38.925274 0.55920225 0.35677084
179.88022 -124.67303 0.31232339 0.00053270126
-37.118427 -32.70401 1.1133609 0.09375
180.14297 -123.54828 0.19507524 0.068046428
12.861282 -48.583374 1.0823057 0.37133789
159.94968 -109.8931 0.10465599 0.018433264
160.05708 -107.14262 0.26288611 0.022395832
181.86604 -112.07283 0.19501118 0.072655112
181.97046 -108.90182 0.08338172 0.070198029
181.99367 -106.94924 0.29870129 0.075683594
166.02289 -92.494202 0.040902615 0.36380726
145.79852 -78.959244 0.46017832 0.067382812
-215.86609 -84.599648 0.69398403 0.19762711
-215.77148 -82.4813 1.0372902 0.16234607
-215.25034 -80.033836 0.87447834 0.1703392
-214.56995 -77.185646 0.46551773 0.14312519
-212.82904 -72.536697 0.75937247 0.184021
145.98645 -3.4751971 0.4351007 0.34154859
-189.63318 -80.409889 0.43757701 0.37583637
154.08368 -8.3300514 0.44286156 0.39528182
147.76553 -4.4209838 0.69535655 0.16452992
141.7697 -1.2210902 0.39008671 0.11527927
150.25581 -5.8602247 0.26308978 0.095551565
-186.14584 -74.68486 0.22658449 0.2630215
149.27045 -133.16092 -0.30535093 0.080281578
148.57741 -129.9446 -0.27833161 0.021728516
178.94653 -127.34288 -0.28480089 0.070775613
179.77507 -124.81541 -0.28622693 0.067985952
159.37534 -114.77215 -0.0627167 0.021333724
159.82004 -111.91187 -0.066672727 0.026535761
160.00778 -108.8269 -0.10804341 0.040576752
181.98892 -109.63811 -0.25776547 0.066430643
159.67819 -98.654472 -0.15266868 0.0073242188
165.76794 -91.085213 -0.28877982 0.59080935
145.80898 -79.632759 -0.13263929 0.14746094
168.64093 -141.90256 0.23861584 0.2908656
170.85611 -139.53226 0.79827714 0.32955685
150.09615 -128.69043 0.073569909 0.04410807
159.27292 -71.685753 -0.23216984 0.4867098
175.6853 -133.21451 0.06735976 0.072110489
-159.26822 -207.19928 0.70913941 0.11298624
-165.73793 -204.1853 1.2052466 0.1433576
-150.45444 -212.9054 0.33109501 0.082704261
